ply
format ascii 1.0
comment made using 3dScanner
comment FileName: Output.ply
comment DateCreated: Wed 02 Aug 2017 03:29:54 PM IST
element vertex 1490
property double x
property double y
property double z
element face 0
property list int int vertex_indices
end_header
-84.203907 155.000000 58.832477
-84.203907 154.000000 58.832477
-84.203907 153.000000 58.832477
-86.755540 152.000000 60.615279
-88.031357 151.000000 61.506680
-81.652273 150.000000 57.049674
-81.652273 149.000000 57.049674
-76.549006 148.000000 53.484070
-49.756854 148.000000 34.764645
-76.549006 147.000000 53.484070
-49.756854 147.000000 34.764645
-47.205220 147.000000 32.981843
-76.549006 146.000000 53.484070
-47.205220 146.000000 32.981843
-72.721556 145.000000 50.809866
-70.169922 144.000000 49.027064
-68.894105 143.000000 48.135663
-66.342472 142.000000 46.352860
-63.790838 142.000000 44.570058
-33.171236 142.000000 23.176430
-63.790838 141.000000 44.570058
-33.171236 141.000000 23.176430
-63.790838 140.000000 44.570058
-38.274503 140.000000 26.742035
-67.618289 139.000000 47.244262
-61.239205 139.000000 42.787256
-38.274503 139.000000 26.742035
-68.894105 138.000000 48.135663
-38.274503 138.000000 26.742035
-68.894105 137.000000 48.135663
-40.826137 137.000000 28.524837
-418.467899 136.000000 292.379581
-68.894105 136.000000 48.135663
-59.963388 136.000000 41.895855
-44.653587 136.000000 31.199041
-68.894105 135.000000 48.135663
-45.929404 135.000000 32.090442
-68.894105 134.000000 48.135663
-48.481037 134.000000 33.873244
-66.342472 133.000000 46.352860
-48.481037 133.000000 33.873244
-66.342472 132.000000 46.352860
-51.032671 132.000000 35.656047
-66.342472 131.000000 46.352860
-53.584304 131.000000 37.438849
-66.342472 130.000000 46.352860
-66.342472 129.000000 46.352860
-66.342472 128.000000 46.352860
-47.205220 128.000000 32.981843
-68.894105 127.000000 48.135663
-71.445739 126.000000 49.918465
-71.445739 125.000000 49.918465
-71.445739 124.000000 49.918465
-71.445739 123.000000 49.918465
-71.445739 122.000000 49.918465
-73.997372 121.000000 51.701267
-76.549006 120.000000 53.484070
-79.100639 119.000000 55.266872
-79.100639 118.000000 55.266872
-80.376456 117.000000 56.158273
-82.928090 116.000000 57.941076
-84.203907 115.000000 58.832477
-86.755540 114.000000 60.615279
-91.858807 113.000000 64.180884
-94.410441 112.000000 65.963686
-72.721556 112.000000 50.809866
-94.410441 111.000000 65.963686
-71.445739 111.000000 49.918465
-96.962074 110.000000 67.746488
-68.894105 110.000000 48.135663
-98.237891 109.000000 68.637890
-68.894105 109.000000 48.135663
-99.513708 108.000000 69.529291
-68.894105 108.000000 48.135663
-99.513708 107.000000 69.529291
-71.445739 107.000000 49.918465
187.545065 107.000000 -131.035971
-102.065341 106.000000 71.312093
-91.858807 106.000000 64.180884
-71.445739 106.000000 49.918465
-103.341158 105.000000 72.203494
-95.686257 105.000000 66.855087
-71.445739 105.000000 49.918465
-104.616975 104.000000 73.094895
-95.686257 104.000000 66.855087
-71.445739 104.000000 49.918465
-108.444425 103.000000 75.769099
-70.169922 103.000000 49.027064
-109.720242 102.000000 76.660500
-68.894105 102.000000 48.135663
-66.342472 102.000000 46.352860
-112.271875 101.000000 78.443302
-68.894105 101.000000 48.135663
-66.342472 101.000000 46.352860
-112.271875 100.000000 78.443302
-68.894105 100.000000 48.135663
-112.271875 99.000000 78.443302
-105.892792 99.000000 73.986297
-67.618289 99.000000 47.244262
-112.271875 98.000000 78.443302
-66.342472 98.000000 46.352860
-116.099326 97.000000 81.117506
-65.066655 97.000000 45.461459
-116.099326 96.000000 81.117506
-122.478410 95.000000 85.574512
-125.030043 94.000000 87.357314
-122.478410 94.000000 85.574512
-132.684944 91.000000 92.705721
-135.236577 90.000000 94.488523
-137.788211 89.000000 96.271326
-133.960760 88.000000 93.597122
-133.960760 87.000000 93.597122
-186.269248 29.000000 130.144570
313.850924 7.000000 -219.284686
318.594031 476.000000 -266.798624
325.753447 473.000000 -272.794099
325.753447 472.000000 -272.794099
-189.724535 401.000000 158.880079
-405.700264 397.000000 339.743566
70.400928 326.000000 -58.955501
56.082095 325.000000 -46.964552
225.521617 306.000000 -188.857453
-397.347611 278.000000 332.748846
268.478116 277.000000 -224.830301
88.299469 261.000000 -73.944188
88.299469 260.000000 -73.944188
-21.478249 234.000000 17.986424
-23.864721 233.000000 19.984916
-26.251194 232.000000 21.983407
-28.637666 231.000000 23.981899
-32.217374 230.000000 26.979636
-33.410610 229.000000 27.978882
-34.603846 228.000000 28.978128
-36.990318 227.000000 30.976619
-38.183554 226.000000 31.975865
-39.376790 225.000000 32.975111
-41.763262 224.000000 34.973602
-44.149735 223.000000 36.972094
-41.763262 223.000000 34.973602
-47.729443 222.000000 39.969831
-44.149735 222.000000 36.972094
-50.115915 221.000000 41.968323
-44.149735 221.000000 36.972094
-52.502387 220.000000 43.966814
-46.536207 220.000000 38.970586
-54.888859 219.000000 45.965306
-46.536207 219.000000 38.970586
-39.376790 219.000000 32.975111
312.627850 219.000000 -261.802395
-54.888859 218.000000 45.965306
-56.082095 217.000000 46.964552
-57.275331 216.000000 47.963798
-59.661803 215.000000 49.962289
-59.661803 214.000000 49.962289
-59.661803 213.000000 49.962289
-60.855040 212.000000 50.961535
-62.048276 211.000000 51.960781
-64.434748 210.000000 53.959272
-64.434748 209.000000 53.959272
-64.434748 208.000000 53.959272
-76.367108 207.000000 63.951730
-64.434748 207.000000 53.959272
-46.536207 207.000000 38.970586
-66.821220 206.000000 55.957764
-64.434748 206.000000 53.959272
-46.536207 206.000000 38.970586
-71.594164 205.000000 59.954747
-71.594164 204.000000 59.954747
-48.922679 204.000000 40.969077
-71.594164 203.000000 59.954747
-48.922679 203.000000 40.969077
-73.980636 202.000000 61.953239
-73.980636 201.000000 61.953239
-73.980636 200.000000 61.953239
-73.980636 199.000000 61.953239
-73.980636 198.000000 61.953239
-73.980636 197.000000 61.953239
-73.980636 196.000000 61.953239
-73.980636 195.000000 61.953239
-410.473208 194.000000 343.740549
-71.594164 194.000000 59.954747
-71.594164 193.000000 59.954747
-71.594164 192.000000 59.954747
-73.980636 191.000000 61.953239
-71.594164 191.000000 59.954747
-73.980636 190.000000 61.953239
-73.980636 189.000000 61.953239
-73.980636 188.000000 61.953239
-69.207692 188.000000 57.956255
-72.787400 187.000000 60.953993
-69.207692 187.000000 57.956255
-51.309151 187.000000 42.967569
-71.594164 186.000000 59.954747
-50.115915 186.000000 41.968323
-71.594164 185.000000 59.954747
-50.115915 185.000000 41.968323
-76.367108 184.000000 63.951730
-51.309151 184.000000 42.967569
-76.367108 183.000000 63.951730
-51.309151 183.000000 42.967569
-78.753581 182.000000 65.950222
-81.140053 181.000000 67.948713
-81.140053 180.000000 67.948713
-78.753581 180.000000 65.950222
-78.753581 179.000000 65.950222
-79.946817 178.000000 66.949467
-79.946817 177.000000 66.949467
-79.946817 176.000000 66.949467
-78.753581 175.000000 65.950222
-78.753581 174.000000 65.950222
-78.753581 173.000000 65.950222
-78.753581 172.000000 65.950222
-77.560345 171.000000 64.950976
-77.560345 170.000000 64.950976
-76.367108 169.000000 63.951730
-76.367108 168.000000 63.951730
-76.367108 167.000000 63.951730
-76.367108 166.000000 63.951730
-78.753581 165.000000 65.950222
-76.367108 165.000000 63.951730
-78.753581 164.000000 65.950222
-76.367108 164.000000 63.951730
-48.922679 164.000000 40.969077
-78.753581 163.000000 65.950222
-48.922679 163.000000 40.969077
-78.753581 162.000000 65.950222
-48.922679 162.000000 40.969077
-76.367108 161.000000 63.951730
-47.729443 161.000000 39.969831
-76.367108 160.000000 63.951730
-47.729443 160.000000 39.969831
-76.367108 159.000000 63.951730
-76.367108 158.000000 63.951730
-71.594164 158.000000 59.954747
-76.367108 157.000000 63.951730
-71.594164 157.000000 59.954747
-75.173872 156.000000 62.952484
-71.594164 156.000000 59.954747
-75.173872 155.000000 62.952484
-76.367108 154.000000 63.951730
-76.367108 153.000000 63.951730
-77.560345 152.000000 64.950976
-76.367108 151.000000 63.951730
-388.994959 150.000000 325.754125
-76.367108 150.000000 63.951730
-73.980636 149.000000 61.953239
-73.980636 148.000000 61.953239
-71.594164 147.000000 59.954747
-71.594164 146.000000 59.954747
-68.014456 146.000000 56.957010
-64.434748 146.000000 53.959272
-64.434748 145.000000 53.959272
-64.434748 144.000000 53.959272
-64.434748 143.000000 53.959272
-31.024138 140.000000 25.980390
-35.797082 139.000000 29.977373
-38.183554 138.000000 31.975865
-38.183554 137.000000 31.975865
-39.376790 136.000000 32.975111
-40.570026 135.000000 33.974357
-42.956499 134.000000 35.972848
-62.048276 133.000000 51.960781
-45.342971 133.000000 37.971340
-62.048276 132.000000 51.960781
-47.729443 132.000000 39.969831
-399.734083 131.000000 334.747337
-62.048276 131.000000 51.960781
-51.309151 131.000000 42.967569
-63.241512 130.000000 52.960026
-41.763262 130.000000 34.973602
-63.241512 129.000000 52.960026
-62.048276 128.000000 51.960781
-66.821220 127.000000 55.957764
-62.048276 127.000000 51.960781
-66.821220 126.000000 55.957764
-66.821220 125.000000 55.957764
-66.821220 124.000000 55.957764
-66.821220 123.000000 55.957764
-69.207692 122.000000 57.956255
-69.207692 121.000000 57.956255
-73.980636 120.000000 61.953239
-56.082095 120.000000 46.964552
-73.980636 119.000000 61.953239
-77.560345 118.000000 64.950976
-78.753581 117.000000 65.950222
-81.140053 116.000000 67.948713
-81.140053 115.000000 67.948713
-64.434748 115.000000 53.959272
-81.140053 114.000000 67.948713
-63.241512 114.000000 52.960026
-81.140053 113.000000 67.948713
-78.753581 113.000000 65.950222
-63.241512 113.000000 52.960026
-85.912997 112.000000 71.945696
-78.753581 112.000000 65.950222
-63.241512 112.000000 52.960026
-87.106233 111.000000 72.944942
-78.753581 111.000000 65.950222
-63.241512 111.000000 52.960026
-33.410610 111.000000 27.978882
-88.299469 110.000000 73.944188
-64.434748 110.000000 53.959272
-33.410610 110.000000 27.978882
-91.879177 109.000000 76.941925
-81.140053 109.000000 67.948713
-64.434748 109.000000 53.959272
-33.410610 109.000000 27.978882
-93.072413 108.000000 77.941171
-63.241512 108.000000 52.960026
-33.410610 108.000000 27.978882
-29.830902 108.000000 24.981145
-94.265650 107.000000 78.940417
-63.241512 107.000000 52.960026
-34.603846 107.000000 28.978128
-29.830902 107.000000 24.981145
-95.458886 106.000000 79.939663
-64.434748 106.000000 53.959272
-34.603846 106.000000 28.978128
-100.231830 105.000000 83.936646
-64.434748 105.000000 53.959272
-35.797082 105.000000 29.977373
-100.231830 104.000000 83.936646
-63.241512 104.000000 52.960026
-35.797082 104.000000 29.977373
-101.425066 103.000000 84.935892
-62.048276 103.000000 51.960781
-33.410610 103.000000 27.978882
-102.618302 102.000000 85.935137
-102.618302 101.000000 85.935137
-101.425066 100.000000 84.935892
-107.391246 99.000000 89.932120
-101.425066 99.000000 84.935892
-110.970954 98.000000 92.929858
-112.164191 97.000000 93.929104
-112.164191 96.000000 93.929104
-124.096551 91.000000 103.921561
-124.096551 90.000000 103.921561
-122.903315 88.000000 102.922316
-374.532719 455.000000 373.823003
-179.555392 440.000000 179.215145
-51.773641 427.000000 51.675533
-55.078341 426.000000 54.973971
-63.890876 384.000000 63.769806
36.351705 368.000000 -36.282821
-367.923318 366.000000 367.226126
72.703410 349.000000 -72.565642
212.602396 322.000000 -212.199528
218.110230 300.000000 -217.696925
-301.829309 248.000000 301.257361
-290.813640 245.000000 290.262567
-106.851982 242.000000 106.649504
-19.828203 233.000000 19.790630
-24.234470 232.000000 24.188547
-26.437604 231.000000 26.387506
-28.640737 230.000000 28.586465
-30.843871 229.000000 30.785424
-33.047005 228.000000 32.984383
-34.148571 227.000000 34.083862
-35.250138 226.000000 35.183341
-39.656406 225.000000 39.581259
286.407373 225.000000 -285.864649
-41.859539 224.000000 41.780218
-41.859539 223.000000 41.780218
-44.062673 222.000000 43.979177
-44.062673 221.000000 43.979177
-48.468940 220.000000 48.377094
284.204239 220.000000 -283.665690
286.407373 220.000000 -285.864649
288.610507 220.000000 -288.063608
-48.468940 219.000000 48.377094
288.610507 219.000000 -288.063608
-50.672074 218.000000 50.576053
-55.078341 217.000000 54.973971
264.376037 217.000000 -263.875061
-53.976774 216.000000 53.874492
-53.976774 215.000000 53.874492
-55.078341 214.000000 54.973971
-57.281475 213.000000 57.172930
-59.484608 212.000000 59.371889
-59.484608 211.000000 59.371889
-57.281475 210.000000 57.172930
-66.094009 209.000000 65.968765
-62.789309 209.000000 62.670327
-57.281475 209.000000 57.172930
-66.094009 208.000000 65.968765
-66.094009 207.000000 65.968765
-63.890876 206.000000 63.769806
-63.890876 205.000000 63.769806
-68.297143 204.000000 68.167724
-68.297143 203.000000 68.167724
-69.398710 202.000000 69.267203
-42.961106 202.000000 42.879697
-68.297143 201.000000 68.167724
-68.297143 200.000000 68.167724
-68.297143 199.000000 68.167724
-68.297143 198.000000 68.167724
-68.297143 197.000000 68.167724
-68.297143 196.000000 68.167724
-41.859539 196.000000 41.780218
-68.297143 195.000000 68.167724
-41.859539 195.000000 41.780218
-68.297143 194.000000 68.167724
-68.297143 193.000000 68.167724
-63.890876 193.000000 63.769806
-68.297143 192.000000 68.167724
-61.687742 192.000000 61.570847
-61.687742 191.000000 61.570847
-63.890876 190.000000 63.769806
-63.890876 189.000000 63.769806
-66.094009 188.000000 65.968765
-68.297143 187.000000 68.167724
-68.297143 186.000000 68.167724
-93.633180 185.000000 93.455751
-70.500276 185.000000 70.366683
-68.297143 185.000000 68.167724
-70.500276 184.000000 70.366683
-69.398710 183.000000 69.267203
-68.297143 182.000000 68.167724
-68.297143 181.000000 68.167724
-68.297143 180.000000 68.167724
-72.703410 179.000000 72.565642
-68.297143 179.000000 68.167724
-74.906544 178.000000 74.764601
-70.500276 177.000000 70.366683
-70.500276 176.000000 70.366683
-70.500276 175.000000 70.366683
-70.500276 174.000000 70.366683
-70.500276 173.000000 70.366683
-70.500276 172.000000 70.366683
-72.703410 171.000000 72.565642
-72.703410 170.000000 72.565642
-70.500276 169.000000 70.366683
-70.500276 168.000000 70.366683
-70.500276 167.000000 70.366683
-50.672074 167.000000 50.576053
-70.500276 166.000000 70.366683
-50.672074 166.000000 50.576053
-82.617511 165.000000 82.460956
-70.500276 165.000000 70.366683
-50.672074 165.000000 50.576053
-70.500276 164.000000 70.366683
-70.500276 163.000000 70.366683
-41.859539 163.000000 41.780218
-70.500276 162.000000 70.366683
-70.500276 161.000000 70.366683
-70.500276 160.000000 70.366683
-70.500276 159.000000 70.366683
-70.500276 158.000000 70.366683
-70.500276 157.000000 70.366683
-68.297143 156.000000 68.167724
-68.297143 155.000000 68.167724
-70.500276 154.000000 70.366683
-68.297143 153.000000 68.167724
-66.094009 152.000000 65.968765
-66.094009 151.000000 65.968765
-66.094009 150.000000 65.968765
-63.890876 149.000000 63.769806
-61.687742 148.000000 61.570847
-59.484608 147.000000 59.371889
-38.554839 147.000000 38.481780
-57.281475 146.000000 57.172930
-57.281475 145.000000 57.172930
-40.757972 145.000000 40.680739
-55.078341 144.000000 54.973971
-40.757972 144.000000 40.680739
-55.078341 143.000000 54.973971
-52.875207 139.000000 52.775012
-30.843871 139.000000 30.785424
-52.875207 138.000000 52.775012
-33.047005 138.000000 32.984383
-52.875207 137.000000 52.775012
-28.640737 137.000000 28.586465
-55.078341 132.000000 54.973971
-55.078341 131.000000 54.973971
-55.078341 130.000000 54.973971
-373.431152 129.000000 372.723523
-55.078341 129.000000 54.973971
-56.179908 128.000000 56.073450
-57.281475 127.000000 57.172930
-57.281475 126.000000 57.172930
-57.281475 125.000000 57.172930
-59.484608 124.000000 59.371889
-370.126451 123.000000 369.425085
-61.687742 123.000000 61.570847
-53.976774 123.000000 53.874492
-62.789309 122.000000 62.670327
-66.094009 121.000000 65.968765
-67.195576 120.000000 67.068245
-68.297143 119.000000 68.167724
-70.500276 118.000000 70.366683
-70.500276 117.000000 70.366683
-360.212350 116.000000 359.529770
-72.703410 116.000000 72.565642
-55.078341 116.000000 54.973971
-74.906544 115.000000 74.764601
-76.008111 114.000000 75.864080
-77.109677 113.000000 76.963559
-57.281475 113.000000 57.172930
-55.078341 113.000000 54.973971
-78.211244 112.000000 78.063039
-57.281475 112.000000 57.172930
-81.515945 111.000000 81.361477
-55.078341 111.000000 54.973971
-83.719078 110.000000 83.560436
-55.078341 110.000000 54.973971
-83.719078 109.000000 83.560436
-53.976774 109.000000 53.874492
-85.922212 108.000000 85.759395
-53.976774 108.000000 53.874492
-88.125346 107.000000 87.958354
-88.125346 106.000000 87.958354
-89.226912 105.000000 89.057833
-89.226912 104.000000 89.057833
157.524055 104.000000 -157.225557
-89.226912 103.000000 89.057833
-96.937880 102.000000 96.754189
-96.937880 101.000000 96.754189
-99.141014 100.000000 98.953148
-101.344147 99.000000 101.152107
-101.344147 98.000000 101.152107
-103.547281 97.000000 103.351065
-103.547281 96.000000 103.351065
-107.953548 93.000000 107.748983
-107.953548 92.000000 107.748983
-113.461382 90.000000 113.246380
-110.156682 66.000000 109.947942
-125.578617 42.000000 125.340654
-167.438157 16.000000 167.120872
270.406953 473.000000 -321.661428
-346.521503 392.000000 412.203163
-305.459707 293.000000 363.358279
-315.474779 273.000000 375.271666
-24.036174 230.000000 28.592127
-29.043710 229.000000 34.548820
255.384345 229.000000 -303.791348
-30.045217 228.000000 35.740159
-31.046724 227.000000 36.931497
-33.049739 226.000000 39.314174
-34.051246 225.000000 40.505513
-37.055768 224.000000 44.079529
-38.057275 223.000000 45.270868
-41.061797 222.000000 48.844883
-42.063304 221.000000 50.036222
-43.064811 220.000000 51.227561
-44.066318 219.000000 52.418899
-48.072347 218.000000 57.184254
-46.069333 218.000000 54.801577
-48.072347 217.000000 57.184254
-48.072347 216.000000 57.184254
-48.072347 215.000000 57.184254
-53.079883 214.000000 63.140947
-50.075362 214.000000 59.566931
-56.084405 213.000000 66.714963
-56.084405 212.000000 66.714963
-54.081391 211.000000 64.332286
-52.078376 210.000000 61.949608
-52.078376 209.000000 61.949608
-56.084405 208.000000 66.714963
-56.084405 207.000000 66.714963
-56.084405 206.000000 66.714963
-62.093449 205.000000 73.862995
-59.088927 205.000000 70.288979
-56.084405 205.000000 66.714963
-42.063304 205.000000 50.036222
-60.090434 204.000000 71.480317
-42.063304 204.000000 50.036222
-60.090434 203.000000 71.480317
-58.087420 202.000000 69.097640
-58.087420 201.000000 69.097640
-58.087420 200.000000 69.097640
-58.087420 199.000000 69.097640
-59.088927 198.000000 70.288979
-60.090434 197.000000 71.480317
-58.087420 196.000000 69.097640
-58.087420 195.000000 69.097640
270.406953 195.000000 -321.661428
-59.088927 194.000000 70.288979
271.408461 194.000000 -322.852766
-58.087420 193.000000 69.097640
-58.087420 192.000000 69.097640
-60.090434 191.000000 71.480317
-58.087420 191.000000 69.097640
-62.093449 190.000000 73.862995
-43.064811 190.000000 51.227561
-64.096463 189.000000 76.245672
-43.064811 189.000000 51.227561
-60.090434 188.000000 71.480317
-60.090434 187.000000 71.480317
-60.090434 186.000000 71.480317
-61.091941 185.000000 72.671656
-62.093449 184.000000 73.862995
-62.093449 183.000000 73.862995
-62.093449 182.000000 73.862995
-62.093449 181.000000 73.862995
-64.096463 180.000000 76.245672
-64.096463 179.000000 76.245672
-64.096463 178.000000 76.245672
-64.096463 177.000000 76.245672
-64.096463 176.000000 76.245672
-64.096463 175.000000 76.245672
-64.096463 174.000000 76.245672
-64.096463 173.000000 76.245672
-62.093449 172.000000 73.862995
-62.093449 171.000000 73.862995
-43.064811 171.000000 51.227561
-62.093449 170.000000 73.862995
-62.093449 169.000000 73.862995
-62.093449 168.000000 73.862995
-43.064811 168.000000 51.227561
-63.094956 167.000000 75.054333
-64.096463 166.000000 76.245672
-62.093449 165.000000 73.862995
-62.093449 164.000000 73.862995
-62.093449 163.000000 73.862995
-62.093449 162.000000 73.862995
-62.093449 161.000000 73.862995
-62.093449 160.000000 73.862995
-62.093449 159.000000 73.862995
-62.093449 158.000000 73.862995
-44.066318 158.000000 52.418899
-62.093449 157.000000 73.862995
-62.093449 156.000000 73.862995
-44.066318 156.000000 52.418899
-62.093449 155.000000 73.862995
-44.066318 155.000000 52.418899
-61.091941 154.000000 72.671656
-64.096463 153.000000 76.245672
-61.091941 153.000000 72.671656
-64.096463 152.000000 76.245672
-60.090434 152.000000 71.480317
-44.066318 152.000000 52.418899
-58.087420 151.000000 69.097640
-58.087420 150.000000 69.097640
-54.081391 150.000000 64.332286
-54.081391 149.000000 64.332286
-52.078376 148.000000 61.949608
-52.078376 147.000000 61.949608
-50.075362 146.000000 59.566931
-50.075362 145.000000 59.566931
-46.069333 144.000000 54.801577
-41.061797 132.000000 48.844883
-39.058782 132.000000 46.462206
-42.063304 131.000000 50.036222
-42.063304 130.000000 50.036222
-54.081391 128.000000 64.332286
-52.078376 128.000000 61.949608
-54.081391 127.000000 64.332286
-54.081391 126.000000 64.332286
-54.081391 125.000000 64.332286
-56.084405 124.000000 66.714963
-56.084405 123.000000 66.714963
-54.081391 123.000000 64.332286
-56.084405 122.000000 66.714963
-54.081391 122.000000 64.332286
-56.084405 121.000000 66.714963
-62.093449 120.000000 73.862995
-48.072347 120.000000 57.184254
-64.096463 119.000000 76.245672
-48.072347 119.000000 57.184254
-64.096463 118.000000 76.245672
-66.099478 117.000000 78.628349
-66.099478 116.000000 78.628349
-67.100985 115.000000 79.819688
-68.102492 114.000000 81.011026
-70.105506 113.000000 83.393703
-68.102492 113.000000 81.011026
-50.075362 113.000000 59.566931
-72.108521 112.000000 85.776381
-74.111535 111.000000 88.159058
-74.111535 110.000000 88.159058
-74.111535 109.000000 88.159058
-77.116057 108.000000 91.733074
-80.120579 107.000000 95.307090
-79.119072 106.000000 94.115751
-78.117564 105.000000 92.924412
-83.125101 104.000000 98.881106
-83.125101 103.000000 98.881106
-89.134144 102.000000 106.029137
-94.141680 98.000000 111.985830
-96.144695 97.000000 114.368508
-96.144695 96.000000 114.368508
-96.144695 95.000000 114.368508
-97.146202 94.000000 115.559846
-99.149216 93.000000 117.942523
-100.150724 92.000000 119.133862
-83.125101 51.000000 98.881106
-158.238143 4.000000 188.231502
238.358722 4.000000 -283.538592
-258.313819 426.000000 368.221755
-244.012708 418.000000 347.835776
-294.066597 374.000000 419.186704
-312.836805 287.000000 445.943302
-33.965139 279.000000 48.416701
-298.535694 253.000000 425.557323
-35.752778 222.000000 50.964949
-37.540417 221.000000 53.513196
-37.540417 220.000000 53.513196
-310.155347 219.000000 442.120931
-39.328055 219.000000 56.061444
-41.115694 218.000000 58.609691
-42.903333 217.000000 61.157939
-44.690972 216.000000 63.706186
-44.690972 215.000000 63.706186
-47.372430 214.000000 67.528557
-45.584792 214.000000 64.980310
-47.372430 213.000000 67.528557
-47.372430 212.000000 67.528557
-47.372430 211.000000 67.528557
-48.266250 210.000000 68.802681
-48.266250 209.000000 68.802681
-46.478611 208.000000 66.254433
-46.478611 207.000000 66.254433
-46.478611 206.000000 66.254433
-46.478611 205.000000 66.254433
-48.266250 204.000000 68.802681
-50.947708 203.000000 72.625052
-50.947708 202.000000 72.625052
-50.947708 201.000000 72.625052
-53.629167 200.000000 76.447423
-52.735347 199.000000 75.173300
-51.841528 198.000000 73.899176
-51.841528 197.000000 73.899176
-39.328055 197.000000 56.061444
-51.841528 196.000000 73.899176
-39.328055 196.000000 56.061444
-51.841528 195.000000 73.899176
-53.629167 194.000000 76.447423
-53.629167 193.000000 76.447423
-51.841528 192.000000 73.899176
-51.841528 191.000000 73.899176
-51.841528 190.000000 73.899176
-51.841528 189.000000 73.899176
-53.629167 188.000000 76.447423
-53.629167 187.000000 76.447423
-55.416805 186.000000 78.995671
-53.629167 186.000000 76.447423
-55.416805 185.000000 78.995671
-55.416805 184.000000 78.995671
-55.416805 183.000000 78.995671
-39.328055 183.000000 56.061444
-53.629167 182.000000 76.447423
-39.328055 182.000000 56.061444
-53.629167 181.000000 76.447423
-39.328055 181.000000 56.061444
-53.629167 180.000000 76.447423
-51.841528 179.000000 73.899176
-51.841528 178.000000 73.899176
-51.841528 177.000000 73.899176
-53.629167 176.000000 76.447423
-53.629167 175.000000 76.447423
-51.841528 174.000000 73.899176
-51.841528 173.000000 73.899176
-40.221875 173.000000 57.335567
-53.629167 172.000000 76.447423
-54.522986 171.000000 77.721547
-54.522986 170.000000 77.721547
-55.416805 169.000000 78.995671
-55.416805 168.000000 78.995671
-55.416805 167.000000 78.995671
-56.310625 166.000000 80.269794
-56.310625 165.000000 80.269794
-59.885903 164.000000 85.366289
-58.992083 163.000000 84.092166
-58.992083 162.000000 84.092166
-53.629167 162.000000 76.447423
-53.629167 161.000000 76.447423
-38.434236 161.000000 54.787320
-52.735347 160.000000 75.173300
-52.735347 159.000000 75.173300
-53.629167 158.000000 76.447423
-53.629167 157.000000 76.447423
-54.522986 156.000000 77.721547
-57.204444 155.000000 81.543918
-53.629167 154.000000 76.447423
-51.841528 153.000000 73.899176
-50.053889 152.000000 71.350928
-48.266250 151.000000 68.802681
-46.478611 150.000000 66.254433
-46.478611 149.000000 66.254433
-46.478611 148.000000 66.254433
-44.690972 147.000000 63.706186
-44.690972 146.000000 63.706186
-42.903333 145.000000 61.157939
-41.115694 144.000000 58.609691
-24.133125 140.000000 34.401340
-26.814583 139.000000 38.223712
-26.814583 138.000000 38.223712
-26.814583 137.000000 38.223712
-27.708403 136.000000 39.497835
-55.416805 135.000000 78.995671
-27.708403 135.000000 39.497835
-57.204444 134.000000 81.543918
-41.115694 134.000000 58.609691
-25.920764 134.000000 36.949588
-58.992083 133.000000 84.092166
-41.115694 133.000000 58.609691
-58.992083 132.000000 84.092166
-58.992083 131.000000 84.092166
-58.992083 130.000000 84.092166
-41.115694 130.000000 58.609691
-58.992083 129.000000 84.092166
-42.903333 129.000000 61.157939
-59.885903 128.000000 85.366289
-42.903333 128.000000 61.157939
-40.221875 127.000000 57.335567
-39.328055 126.000000 56.061444
-39.328055 125.000000 56.061444
-41.115694 124.000000 58.609691
-50.053889 123.000000 71.350928
-303.898611 122.000000 433.202065
-51.841528 122.000000 73.899176
-52.735347 121.000000 75.173300
-55.416805 120.000000 78.995671
-56.310625 119.000000 80.269794
-57.204444 118.000000 81.543918
-58.992083 117.000000 84.092166
-58.992083 116.000000 84.092166
-60.779722 115.000000 86.640413
-62.567361 114.000000 89.188660
-62.567361 113.000000 89.188660
-62.567361 112.000000 89.188660
-62.567361 111.000000 89.188660
-72.399375 107.000000 103.204021
-69.717917 107.000000 99.381650
-140.329653 19.000000 200.037424
-135.860555 17.000000 193.666806
-9.351884 472.000000 16.166450
-225.224541 440.000000 389.342004
-29.614299 424.000000 51.193758
-261.852753 398.000000 452.660600
-270.425314 393.000000 467.479846
-271.204637 392.000000 468.827050
-269.645990 375.000000 466.132642
36.628213 325.000000 -63.318596
142.616232 314.000000 -246.538363
-233.017778 306.000000 402.814046
171.451208 288.000000 -296.384917
0.779324 271.000000 -1.347204
0.779324 270.000000 -1.347204
-265.749372 263.000000 459.396621
56.111304 261.000000 -96.998700
-31.172947 259.000000 53.888167
-261.852753 237.000000 452.660600
197.168889 219.000000 -340.842654
-42.862802 216.000000 74.096229
-42.083478 215.000000 72.749025
-42.083478 214.000000 72.749025
-38.186860 214.000000 66.013004
-256.397488 213.000000 443.230171
-42.862802 213.000000 74.096229
-38.186860 213.000000 66.013004
-256.397488 212.000000 443.230171
-43.642126 212.000000 75.443433
-43.642126 211.000000 75.443433
-45.980097 210.000000 79.485046
-40.524831 210.000000 70.054617
-44.421449 209.000000 76.790638
-40.524831 209.000000 70.054617
-38.966184 209.000000 67.360208
-44.421449 208.000000 76.790638
-40.524831 208.000000 70.054617
-38.966184 208.000000 67.360208
-44.421449 207.000000 76.790638
-40.524831 207.000000 70.054617
-44.421449 206.000000 76.790638
-44.421449 205.000000 76.790638
-40.524831 202.000000 70.054617
-41.304155 201.000000 71.401821
-262.632077 200.000000 454.007804
-42.083478 200.000000 72.749025
-43.642126 199.000000 75.443433
-45.200773 198.000000 78.137842
-44.421449 197.000000 76.790638
-42.083478 196.000000 72.749025
-40.524831 196.000000 70.054617
-40.524831 195.000000 70.054617
-40.524831 194.000000 70.054617
-40.524831 193.000000 70.054617
-42.083478 192.000000 72.749025
-42.083478 191.000000 72.749025
-42.083478 190.000000 72.749025
-42.083478 189.000000 72.749025
-45.200773 188.000000 78.137842
-45.200773 187.000000 78.137842
-45.200773 186.000000 78.137842
202.624154 186.000000 -350.273083
-45.200773 185.000000 78.137842
-45.200773 184.000000 78.137842
-43.642126 184.000000 75.443433
-45.200773 183.000000 78.137842
-43.642126 183.000000 75.443433
-45.980097 182.000000 79.485046
-45.980097 181.000000 79.485046
217.431304 181.000000 -375.869963
-45.980097 180.000000 79.485046
-45.980097 179.000000 79.485046
-45.200773 178.000000 78.137842
-45.200773 177.000000 78.137842
-43.642126 176.000000 75.443433
-43.642126 175.000000 75.443433
-44.421449 174.000000 76.790638
-44.421449 173.000000 76.790638
-46.759420 172.000000 80.832250
-44.421449 172.000000 76.790638
-44.421449 171.000000 76.790638
-42.083478 170.000000 72.749025
-42.083478 169.000000 72.749025
-42.862802 168.000000 74.096229
-44.421449 167.000000 76.790638
-42.862802 167.000000 74.096229
-44.421449 166.000000 76.790638
-44.421449 165.000000 76.790638
-42.862802 165.000000 74.096229
-44.421449 164.000000 76.790638
-42.862802 164.000000 74.096229
-45.200773 163.000000 78.137842
-42.862802 163.000000 74.096229
-45.200773 162.000000 78.137842
-42.862802 162.000000 74.096229
-45.200773 161.000000 78.137842
-45.200773 160.000000 78.137842
-44.421449 159.000000 76.790638
-42.862802 158.000000 74.096229
-42.862802 157.000000 74.096229
-42.083478 156.000000 72.749025
-40.524831 156.000000 70.054617
-38.966184 156.000000 67.360208
-40.524831 155.000000 70.054617
-41.304155 154.000000 71.401821
-22.600386 144.000000 39.068921
-21.821063 143.000000 37.721717
-45.200773 139.000000 78.137842
-45.200773 138.000000 78.137842
-23.379710 138.000000 40.416125
-45.200773 137.000000 78.137842
-23.379710 137.000000 40.416125
-45.200773 136.000000 78.137842
-23.379710 136.000000 40.416125
-43.642126 135.000000 75.443433
-52.994010 131.000000 91.609883
-52.994010 130.000000 91.609883
-52.214686 129.000000 90.262679
-37.407536 128.000000 64.665800
-38.966184 127.000000 67.360208
-39.745507 126.000000 68.707413
-40.524831 125.000000 70.054617
-42.083478 124.000000 72.749025
-42.862802 123.000000 74.096229
-45.200773 122.000000 78.137842
-43.642126 122.000000 75.443433
-46.759420 121.000000 80.832250
-36.628213 121.000000 63.318596
-46.759420 120.000000 80.832250
-48.318068 119.000000 83.526658
-49.876715 118.000000 86.221067
-42.862802 118.000000 74.096229
-50.656039 117.000000 87.568271
-52.994010 116.000000 91.609883
-54.552657 115.000000 94.304292
-54.552657 114.000000 94.304292
-56.890628 113.000000 98.345904
-54.552657 112.000000 94.304292
-54.552657 111.000000 94.304292
-75.594396 97.000000 130.678804
-75.594396 96.000000 130.678804
-74.815072 95.000000 129.331600
98.974106 95.000000 -171.094929
-74.815072 94.000000 129.331600
98.974106 94.000000 -171.094929
98.974106 93.000000 -171.094929
-272.763285 71.000000 471.521459
-95.077488 46.000000 164.358908
188.596328 22.000000 -326.023408
179.244444 16.000000 -309.856958
183.920386 13.000000 -317.940183
90.268204 470.000000 -193.173196
-191.078681 440.000000 408.906765
-191.078681 439.000000 408.906765
-191.078681 438.000000 408.906765
-189.102005 437.000000 404.676695
-33.603492 425.000000 71.911190
-192.396465 421.000000 411.726811
21.084544 420.000000 -45.120746
-214.798793 373.000000 459.667604
-214.798793 372.000000 459.667604
-214.798793 369.000000 459.667604
-215.457685 330.000000 461.077628
-193.055357 306.000000 413.136835
-225.999957 277.000000 483.638001
154.180729 269.000000 -329.945458
14.495624 252.000000 -31.020513
13.177840 251.000000 -28.200467
11.201164 250.000000 -23.970397
12.518948 249.000000 -26.790443
-27.673464 132.000000 59.220980
-27.673464 131.000000 59.220980
-30.309032 130.000000 64.861073
-31.626816 129.000000 67.681120
-32.285708 128.000000 69.091143
-32.944600 127.000000 70.501166
-32.944600 126.000000 70.501166
-34.262384 125.000000 73.321213
-33.603492 124.000000 71.911190
-32.944600 123.000000 70.501166
-37.556844 122.000000 80.371330
-34.921276 122.000000 74.731236
-39.533520 121.000000 84.601400
-40.851304 120.000000 87.421446
-39.533520 120.000000 84.601400
-59.300280 119.000000 126.902099
-40.192412 119.000000 86.011423
-59.300280 118.000000 126.902099
-40.192412 118.000000 86.011423
-60.618064 117.000000 129.722146
-40.192412 117.000000 86.011423
-61.276956 116.000000 131.132169
-38.874628 116.000000 83.191376
-219.411037 108.000000 469.537768
-54.029144 105.000000 115.621913
-54.029144 104.000000 115.621913
-64.571416 97.000000 138.182286
-63.253632 96.000000 135.362239
-62.594740 95.000000 133.952216
-29.872737 435.000000 81.877752
-186.171165 276.000000 510.273850
11.735718 252.000000 -32.166260
9.601951 251.000000 -26.317849
8.535068 250.000000 -23.393644
7.468184 249.000000 -20.469438
5.334417 248.000000 -14.621027
125.892249 248.000000 -345.056242
5.334417 247.000000 -14.621027
4.267534 246.000000 -11.696822
4.267534 245.000000 -11.696822
3.200650 244.000000 -8.772616
-167.500705 241.000000 459.100255
-185.104282 214.000000 507.349644
-184.037398 210.000000 504.425439
-23.471436 147.000000 64.332520
-24.004878 146.000000 65.794622
-24.538320 145.000000 67.256725
-24.538320 144.000000 67.256725
-24.538320 143.000000 67.256725
-24.004878 142.000000 65.794622
-28.805854 141.000000 78.953547
-28.805854 140.000000 78.953547
-28.805854 139.000000 78.953547
-18.670461 134.000000 51.173595
-33.073388 133.000000 90.650369
-19.203902 133.000000 52.635698
-22.937995 132.000000 62.870417
-19.203902 132.000000 52.635698
-23.471436 131.000000 64.332520
-23.471436 130.000000 64.332520
-24.538320 129.000000 67.256725
-20.804228 129.000000 57.022006
-25.605203 128.000000 70.180931
-25.605203 127.000000 70.180931
-25.605203 126.000000 70.180931
-25.605203 125.000000 70.180931
-29.872737 122.000000 81.877752
-30.939621 121.000000 84.801958
-32.006504 120.000000 87.726163
-33.073388 119.000000 90.650369
-33.606829 118.000000 92.112471
-34.140271 117.000000 93.574574
-34.140271 116.000000 93.574574
-32.539946 115.000000 89.188266
-39.474688 111.000000 108.195601
-38.407805 110.000000 105.271396
-43.208780 107.000000 118.430320
-43.742222 106.000000 119.892423
-44.809106 105.000000 122.816629
-42.141897 105.000000 115.506115
-44.809106 104.000000 122.816629
-48.009756 101.000000 131.589245
-46.942873 100.000000 128.665040
-46.942873 99.000000 128.665040
-48.543198 98.000000 133.051348
-46.409431 98.000000 127.202937
-50.676965 97.000000 138.899759
-49.610081 97.000000 135.975553
-51.210406 96.000000 140.361861
-51.743848 95.000000 141.823964
-52.277290 94.000000 143.286067
-52.277290 93.000000 143.286067
-65.613333 42.000000 179.838635
12.925708 419.000000 -48.097462
-79.169963 352.000000 294.596953
68.667825 307.000000 -255.517765
20.600348 274.000000 -76.655330
-14.137493 262.000000 52.606599
8.886424 253.000000 -33.067005
8.078568 252.000000 -30.060914
10.098210 252.000000 -37.576142
7.674639 251.000000 -28.557868
7.270711 250.000000 -27.054822
6.462854 249.000000 -24.048731
4.847141 248.000000 -18.036548
4.039284 247.000000 -15.030457
2.423570 246.000000 -9.018274
2.423570 245.000000 -9.018274
1.615714 244.000000 -6.012183
0.807857 243.000000 -3.006091
1.615714 242.000000 -6.012183
106.233165 221.000000 -395.301014
-138.547436 195.000000 515.544668
-19.388562 144.000000 72.146193
-20.196419 143.000000 75.152284
-19.388562 142.000000 72.146193
-19.388562 141.000000 72.146193
-18.984634 140.000000 70.643147
-23.427846 138.000000 87.176649
-24.235703 137.000000 90.182741
-24.235703 136.000000 90.182741
-24.235703 135.000000 90.182741
-16.157135 133.000000 60.121827
-16.964992 132.000000 63.127919
-17.368921 131.000000 64.630964
-17.368921 130.000000 64.630964
-17.772849 129.000000 66.134010
-16.964992 128.000000 63.127919
-19.388562 127.000000 72.146193
-18.176777 127.000000 67.637056
-16.561064 127.000000 61.624873
-22.216061 126.000000 82.667512
-20.196419 126.000000 75.152284
-32.314271 125.000000 120.243654
-22.216061 125.000000 82.667512
-21.004276 125.000000 78.158375
-32.314271 124.000000 120.243654
-22.216061 124.000000 82.667512
-22.216061 123.000000 82.667512
-21.408204 122.000000 79.661421
-27.467130 115.000000 102.207106
-29.082844 114.000000 108.219289
-29.082844 113.000000 108.219289
-29.890700 112.000000 111.225380
-30.698557 111.000000 114.231472
-30.698557 110.000000 114.231472
-30.698557 109.000000 114.231472
-29.082844 108.000000 108.219289
-35.545698 104.000000 132.268020
-35.545698 103.000000 132.268020
-35.949626 102.000000 133.771065
-36.353555 101.000000 135.274111
-37.565340 100.000000 139.783248
-37.969268 99.000000 141.286294
-38.777125 98.000000 144.292385
-39.584982 97.000000 147.298477
-39.584982 96.000000 147.298477
-40.392838 95.000000 150.304568
-40.392838 94.000000 150.304568
-39.988910 93.000000 148.801522
-42.008552 92.000000 156.316751
-42.008552 91.000000 156.316751
-42.008552 90.000000 156.316751
-41.604624 89.000000 154.813705
73.804051 465.000000 -416.850974
74.889405 461.000000 -422.981136
13.295583 448.000000 -75.094477
13.295583 447.000000 -75.094477
-9.225506 433.000000 52.106372
8.954168 429.000000 -50.573831
-3.527399 425.000000 19.923025
-51.825639 416.000000 292.715206
-54.539023 406.000000 308.040610
8.954168 368.000000 -50.573831
7.326137 363.000000 -41.378589
14.923613 287.000000 -84.289719
65.392560 270.000000 -369.342223
5.426768 251.000000 -30.650807
4.884092 250.000000 -27.585726
4.884092 249.000000 -27.585726
3.798738 248.000000 -21.455565
4.341415 248.000000 -24.520646
3.256061 247.000000 -18.390484
1.628031 246.000000 -9.195242
0.814015 245.000000 -4.597621
0.542677 244.000000 -3.065081
0.542677 243.000000 -3.065081
-83.572234 242.000000 472.022427
-0.542677 242.000000 3.065081
-0.000000 241.000000 0.000000
10.853537 220.000000 -61.301614
70.547990 188.000000 -398.460490
-21.707074 150.000000 122.603228
-9.496845 136.000000 53.638912
-9.768183 135.000000 55.171452
-9.768183 134.000000 55.171452
-10.310860 133.000000 58.236533
-9.768183 133.000000 55.171452
-17.908336 132.000000 101.147663
-10.853537 132.000000 61.301614
-10.310860 132.000000 58.236533
-17.094321 131.000000 96.550042
-10.853537 131.000000 61.301614
-9.496845 131.000000 53.638912
-17.365659 130.000000 98.082582
-92.255064 124.000000 521.063718
-92.255064 123.000000 521.063718
-92.255064 122.000000 521.063718
-15.737629 122.000000 88.887340
-15.737629 121.000000 88.887340
-15.737629 120.000000 88.887340
-15.737629 119.000000 88.887340
-17.908336 118.000000 101.147663
-15.737629 118.000000 88.887340
-17.908336 117.000000 101.147663
-17.908336 116.000000 101.147663
-18.451013 115.000000 104.212744
-18.993690 114.000000 107.277824
-18.993690 113.000000 107.277824
-20.621720 111.000000 116.473066
-20.621720 110.000000 116.473066
-21.707074 109.000000 122.603228
-21.707074 108.000000 122.603228
-21.707074 107.000000 122.603228
-90.627033 106.000000 511.868476
-89.813018 106.000000 507.270855
-21.707074 106.000000 122.603228
-90.627033 105.000000 511.868476
-89.813018 105.000000 507.270855
-22.249751 104.000000 125.668308
-25.505812 99.000000 144.058793
-26.048489 98.000000 147.123873
-26.591165 97.000000 150.188954
-25.234473 97.000000 142.526252
-26.591165 96.000000 150.188954
-26.319827 95.000000 148.656414
-26.319827 94.000000 148.656414
-26.048489 93.000000 147.123873
-92.255064 29.000000 521.063718
-91.712387 28.000000 517.998637
-91.712387 27.000000 517.998637
68.377283 21.000000 -386.200167
18.725400 468.000000 -212.399604
3.963771 446.000000 -44.960500
3.963771 445.000000 -44.960500
9.157677 349.000000 -103.874259
-4.783861 302.000000 54.262672
-46.745159 276.000000 530.223828
-32.120211 271.000000 364.335087
-6.150679 260.000000 69.766293
3.280362 254.000000 -37.208690
2.870317 250.000000 -32.557603
2.460272 249.000000 -27.906517
2.050226 248.000000 -23.255431
2.460272 248.000000 -27.906517
1.640181 247.000000 -18.604345
1.093454 246.000000 -12.402897
0.820091 245.000000 -9.302172
1.093454 245.000000 -12.402897
0.546727 244.000000 -6.201448
0.273364 243.000000 -3.100724
-0.136682 242.000000 1.550362
-0.273364 241.000000 3.100724
37.860845 159.000000 -429.450294
-9.841086 131.000000 111.626069
-9.841086 130.000000 111.626069
-9.977768 129.000000 113.176431
-9.841086 128.000000 111.626069
-9.841086 127.000000 111.626069
-7.107451 126.000000 80.618828
-7.107451 125.000000 80.618828
-7.517496 124.000000 85.269914
-7.654178 123.000000 86.820276
-7.790860 122.000000 88.370638
-7.927542 121.000000 89.921000
-8.200905 120.000000 93.021724
-8.474269 119.000000 96.122448
-8.747632 118.000000 99.223173
-9.020996 117.000000 102.323897
-9.020996 116.000000 102.323897
-9.294359 115.000000 105.424621
-8.337587 115.000000 94.572086
-9.294359 114.000000 105.424621
-8.337587 114.000000 94.572086
-9.294359 113.000000 105.424621
21.459035 112.000000 -243.406845
21.459035 111.000000 -243.406845
-11.481267 106.000000 130.230414
-11.071222 106.000000 125.579328
-11.481267 105.000000 130.230414
-11.617949 104.000000 131.780776
-11.754631 103.000000 133.331138
-11.754631 102.000000 133.331138
-12.301358 101.000000 139.532586
-12.438039 100.000000 141.082948
-12.848085 99.000000 145.734035
-13.121448 98.000000 148.834759
-13.258130 97.000000 150.385121
-13.394812 95.000000 151.935483
-13.668175 94.000000 155.036207
-13.668175 93.000000 155.036207
-13.258130 93.000000 150.385121
0.254859 475.000000 -403.101154
-0.309963 474.000000 490.258160
-0.311931 473.000000 493.370910
0.019680 459.000000 -31.127502
-0.285363 430.000000 451.348782
-0.195818 411.000000 309.718647
-0.242066 367.000000 382.868277
-0.148586 361.000000 235.012642
-0.325707 341.000000 515.160162
-0.197786 274.000000 312.831397
0.211562 260.000000 -334.620649
0.026568 255.000000 -42.022128
0.026568 254.000000 -42.022128
0.017712 251.000000 -28.014752
0.016728 250.000000 -26.458377
0.022632 250.000000 -35.796628
0.017712 249.000000 -28.014752
0.017712 248.000000 -28.014752
0.014760 247.000000 -23.345627
0.012792 246.000000 -20.232876
0.005904 245.000000 -9.338251
0.011808 245.000000 -18.676501
0.003936 244.000000 -6.225500
-0.000000 243.000000 0.000000
-0.001968 242.000000 3.112750
-0.001968 241.000000 3.112750
-0.001968 240.000000 3.112750
-0.330627 238.000000 522.942037
0.254859 229.000000 -403.101154
-0.334563 214.000000 529.167538
-0.334563 213.000000 529.167538
-0.061009 135.000000 96.495257
-0.334563 132.000000 529.167538
-0.045264 130.000000 71.593255
-0.047232 129.000000 74.706005
-0.046248 128.000000 73.149630
-0.046248 127.000000 73.149630
-0.047232 126.000000 74.706005
-0.047232 125.000000 74.706005
-0.054121 124.000000 85.600631
-0.049200 124.000000 77.818756
-0.055105 123.000000 87.157006
-0.057073 122.000000 90.269756
-0.059041 121.000000 93.382507
-0.059041 120.000000 93.382507
-0.059041 119.000000 93.382507
-0.059041 118.000000 93.382507
-0.059041 117.000000 93.382507
-0.083641 104.000000 132.291884
-0.086593 103.000000 136.961010
-0.087577 102.000000 138.517385
-0.090529 100.000000 143.186510
-0.090529 99.000000 143.186510
-0.090529 98.000000 143.186510
-0.099385 93.000000 157.193886
-7.679110 473.000000 -88.380419
29.099785 355.000000 334.915271
44.592726 340.000000 513.226643
-19.669299 333.000000 -226.377915
-8.083274 321.000000 -93.032020
-26.001196 321.000000 -299.252997
3.098588 297.000000 35.662274
-7.544389 284.000000 -86.829885
41.628859 283.000000 479.114902
46.882986 281.000000 539.585715
-2.424982 251.000000 -27.909606
-2.155540 250.000000 -24.808539
-2.155540 249.000000 -24.808539
-1.347212 247.000000 -15.505337
-1.347212 246.000000 -15.505337
-1.347212 245.000000 -15.505337
-0.404164 244.000000 -4.651601
-0.269442 243.000000 -3.101067
0.134721 242.000000 1.550534
-0.943049 242.000000 -10.853736
0.404164 241.000000 4.651601
0.404164 240.000000 4.651601
3.233309 230.000000 37.212808
3.502752 229.000000 40.313875
3.772194 228.000000 43.414943
4.041637 227.000000 46.516010
4.041637 226.000000 46.516010
8.622158 135.000000 99.234155
8.891601 134.000000 102.335222
8.891601 133.000000 102.335222
9.161043 132.000000 105.436289
9.161043 131.000000 105.436289
9.161043 130.000000 105.436289
7.544389 124.000000 86.829885
7.813831 123.000000 89.930953
7.813831 122.000000 89.930953
7.813831 121.000000 89.930953
7.948552 120.000000 91.481486
7.948552 119.000000 91.481486
7.948552 118.000000 91.481486
11.855468 103.000000 136.446962
12.124910 102.000000 139.548030
11.720747 101.000000 134.896429
11.720747 100.000000 134.896429
13.202680 97.000000 151.952299
13.202680 96.000000 151.952299
13.067959 95.000000 150.401765
70.582885 427.000000 401.615143
89.440908 342.000000 508.916899
89.440908 341.000000 508.916899
-40.140649 333.000000 -228.399452
-17.511021 327.000000 -99.637345
45.528655 314.000000 259.057096
-12.661815 298.000000 -72.045465
84.322302 277.000000 479.792137
-19.396823 256.000000 -110.367520
-5.926807 252.000000 -33.723409
-6.465608 252.000000 -36.789173
-5.926807 251.000000 -33.723409
-5.118606 250.000000 -29.124762
-4.579806 249.000000 -26.058998
-3.502204 248.000000 -19.927469
-4.579806 248.000000 -26.058998
-2.963404 247.000000 -16.861704
-2.694003 246.000000 -15.328822
-4.041005 246.000000 -22.993233
-1.885802 245.000000 -10.730176
-1.077601 244.000000 -6.131529
0.000000 243.000000 0.000000
-0.808201 243.000000 -4.598647
0.538801 242.000000 3.065764
91.865511 241.000000 522.712839
0.808201 241.000000 4.598647
1.077601 240.000000 6.131529
91.596111 239.000000 521.179957
0.538801 239.000000 3.065764
6.465608 231.000000 36.789173
7.004408 230.000000 39.854938
4.579806 230.000000 26.058998
7.543209 229.000000 42.920702
8.082010 228.000000 45.986467
8.620810 227.000000 49.052231
9.159611 226.000000 52.117996
9.698412 225.000000 55.183760
9.698412 224.000000 55.183760
10.237212 223.000000 58.249525
10.237212 222.000000 58.249525
15.355819 136.000000 87.374287
16.164020 135.000000 91.972934
15.355819 135.000000 87.374287
16.433420 134.000000 93.505816
23.707229 120.000000 134.893636
24.784830 119.000000 141.025165
23.976629 119.000000 136.426518
23.707229 103.000000 134.893636
23.707229 102.000000 134.893636
23.707229 101.000000 134.893636
22.899028 101.000000 130.294989
24.515430 100.000000 139.492283
25.323631 99.000000 144.090929
25.862431 98.000000 147.156694
25.323631 98.000000 144.090929
26.401232 97.000000 150.222458
26.940033 96.000000 153.288223
26.940033 95.000000 153.288223
26.940033 94.000000 153.288223
26.401232 94.000000 150.222458
-22.513539 473.000000 -84.199093
62.314259 359.000000 233.051062
62.314259 358.000000 233.051062
62.314259 357.000000 233.051062
-17.287182 308.000000 -64.652875
-69.148726 304.000000 -258.611501
9.246632 298.000000 34.581771
94.074430 272.000000 351.831926
94.074430 271.000000 351.831926
-95.280512 266.000000 -356.342592
-27.337868 265.000000 -102.241756
-95.280512 265.000000 -356.342592
-11.256769 255.000000 -42.099547
-7.638522 250.000000 -28.567550
-7.638522 249.000000 -28.567550
-2.010137 245.000000 -7.517776
-1.608110 244.000000 -6.014221
-0.804055 243.000000 -3.007110
-1.608110 243.000000 -6.014221
-0.804055 242.000000 -3.007110
0.804055 241.000000 3.007110
0.804055 240.000000 3.007110
8.040550 233.000000 30.071105
8.844605 232.000000 33.078215
10.050687 231.000000 37.588881
10.854742 230.000000 40.595991
11.658797 229.000000 43.603102
8.442577 229.000000 31.574660
6.834467 229.000000 25.560439
12.060824 228.000000 45.106657
9.648659 228.000000 36.085326
12.864879 227.000000 48.113768
