ply
format ascii 1.0
comment made using 3dScanner
comment FileName: Output.ply
comment DateCreated: Wed 02 Aug 2017 11:51:55 AM IST
element vertex 1484
property double x
property double y
property double z
element face 0
property list int int vertex_indices
end_header
-19.397853 377.000000 -33.729269
-237.429724 376.000000 -412.846249
-19.397853 376.000000 -33.729269
-256.051664 375.000000 -445.226347
-19.397853 375.000000 -33.729269
-19.397853 374.000000 -33.729269
-19.397853 373.000000 -33.729269
-19.397853 372.000000 -33.729269
-20.173767 371.000000 -35.078439
-20.949682 370.000000 -36.427610
-20.949682 369.000000 -36.427610
-20.949682 368.000000 -36.427610
-20.949682 367.000000 -36.427610
-20.949682 366.000000 -36.427610
-20.949682 365.000000 -36.427610
45.003020 365.000000 78.251903
-20.949682 364.000000 -36.427610
-20.949682 363.000000 -36.427610
-22.501510 362.000000 -39.125952
-22.501510 361.000000 -39.125952
-22.501510 360.000000 -39.125952
-22.501510 359.000000 -39.125952
-22.501510 358.000000 -39.125952
-22.501510 357.000000 -39.125952
-22.501510 356.000000 -39.125952
-22.501510 355.000000 -39.125952
-22.501510 354.000000 -39.125952
-22.501510 353.000000 -39.125952
-22.501510 352.000000 -39.125952
-22.501510 351.000000 -39.125952
-22.501510 350.000000 -39.125952
-22.501510 349.000000 -39.125952
-22.501510 348.000000 -39.125952
-24.053338 347.000000 -41.824293
-24.053338 346.000000 -41.824293
-24.053338 345.000000 -41.824293
-24.053338 344.000000 -41.824293
-24.053338 343.000000 -41.824293
43.451191 343.000000 75.553562
-24.053338 342.000000 -41.824293
-24.053338 341.000000 -41.824293
-22.501510 340.000000 -39.125952
-22.501510 339.000000 -39.125952
-24.053338 338.000000 -41.824293
-24.053338 337.000000 -41.824293
-24.053338 336.000000 -41.824293
-24.053338 335.000000 -41.824293
-24.053338 334.000000 -41.824293
-25.605166 333.000000 -44.522635
43.451191 333.000000 75.553562
-25.605166 332.000000 -44.522635
-25.605166 331.000000 -44.522635
-215.704129 330.000000 -375.069468
-25.605166 330.000000 -44.522635
-25.605166 329.000000 -44.522635
-24.053338 328.000000 -41.824293
-211.824558 327.000000 -368.323615
-24.053338 327.000000 -41.824293
-25.605166 326.000000 -44.522635
-25.605166 325.000000 -44.522635
-24.053338 324.000000 -41.824293
-24.053338 323.000000 -41.824293
-25.605166 322.000000 -44.522635
38.795707 322.000000 67.458537
-25.605166 321.000000 -44.522635
-25.605166 320.000000 -44.522635
-24.053338 319.000000 -41.824293
-24.053338 318.000000 -41.824293
-24.053338 317.000000 -41.824293
-25.605166 316.000000 -44.522635
-24.053338 315.000000 -41.824293
-24.053338 314.000000 -41.824293
-24.053338 313.000000 -41.824293
-25.605166 312.000000 -44.522635
-25.605166 311.000000 -44.522635
-25.605166 310.000000 -44.522635
-25.605166 309.000000 -44.522635
-239.757467 308.000000 -416.893762
-25.605166 308.000000 -44.522635
-241.309295 307.000000 -419.592103
-25.605166 307.000000 -44.522635
-241.309295 306.000000 -419.592103
-25.605166 306.000000 -44.522635
-25.605166 305.000000 -44.522635
-25.605166 304.000000 -44.522635
-25.605166 303.000000 -44.522635
-25.605166 302.000000 -44.522635
-25.605166 301.000000 -44.522635
-27.156995 300.000000 -47.220976
-27.156995 299.000000 -47.220976
-25.605166 298.000000 -44.522635
-25.605166 297.000000 -44.522635
-27.156995 296.000000 -47.220976
-27.156995 295.000000 -47.220976
-25.605166 295.000000 -44.522635
-25.605166 294.000000 -44.522635
-25.605166 293.000000 -44.522635
-27.156995 292.000000 -47.220976
-25.605166 292.000000 -44.522635
-27.156995 291.000000 -47.220976
-27.156995 290.000000 -47.220976
-259.931234 289.000000 -451.972201
-27.156995 289.000000 -47.220976
-27.156995 288.000000 -47.220976
-25.605166 287.000000 -44.522635
-25.605166 286.000000 -44.522635
-25.605166 285.000000 -44.522635
-27.156995 284.000000 -47.220976
41.123449 284.000000 71.506050
-27.156995 283.000000 -47.220976
-25.605166 282.000000 -44.522635
-25.605166 281.000000 -44.522635
-27.156995 280.000000 -47.220976
-27.156995 279.000000 -47.220976
-27.156995 278.000000 -47.220976
41.123449 278.000000 71.506050
-251.396179 277.000000 -437.131323
-26.381080 277.000000 -45.871805
-252.172093 276.000000 -438.480494
-26.381080 276.000000 -45.871805
-27.156995 275.000000 -47.220976
-27.156995 274.000000 -47.220976
-27.156995 273.000000 -47.220976
-238.205639 272.000000 -414.195420
-25.605166 272.000000 -44.522635
-259.931234 271.000000 -451.972201
-25.605166 271.000000 -44.522635
-24.053338 270.000000 -41.824293
-24.053338 269.000000 -41.824293
-25.605166 268.000000 -44.522635
-25.605166 267.000000 -44.522635
-25.605166 266.000000 -44.522635
-259.931234 265.000000 -451.972201
-257.603492 265.000000 -447.924689
-25.605166 265.000000 -44.522635
-259.931234 264.000000 -451.972201
-239.757467 264.000000 -416.893762
-27.156995 264.000000 -47.220976
-259.931234 263.000000 -451.972201
-184.667563 263.000000 -321.102638
-27.156995 263.000000 -47.220976
132.681317 263.000000 230.708198
-259.931234 262.000000 -451.972201
-27.156995 262.000000 -47.220976
-27.156995 261.000000 -47.220976
-27.156995 260.000000 -47.220976
-27.156995 259.000000 -47.220976
-27.156995 258.000000 -47.220976
-255.275749 257.000000 -443.877177
-26.381080 257.000000 -45.871805
-26.381080 256.000000 -45.871805
-26.381080 255.000000 -45.871805
-27.156995 254.000000 -47.220976
-27.156995 253.000000 -47.220976
-27.156995 252.000000 -47.220976
-27.156995 251.000000 -47.220976
-26.381080 250.000000 -45.871805
-26.381080 249.000000 -45.871805
-26.381080 248.000000 -45.871805
-27.156995 247.000000 -47.220976
-27.156995 246.000000 -47.220976
-27.156995 245.000000 -47.220976
-28.708823 244.000000 -49.919318
-28.708823 243.000000 -49.919318
-28.708823 242.000000 -49.919318
-27.156995 241.000000 -47.220976
-27.156995 240.000000 -47.220976
-27.156995 239.000000 -47.220976
-27.156995 238.000000 -47.220976
-25.605166 237.000000 -44.522635
-25.605166 236.000000 -44.522635
-25.605166 235.000000 -44.522635
-25.605166 234.000000 -44.522635
-26.381080 233.000000 -45.871805
-26.381080 232.000000 -45.871805
-25.605166 231.000000 -44.522635
-25.605166 230.000000 -44.522635
-26.381080 229.000000 -45.871805
-27.156995 228.000000 -47.220976
-27.156995 227.000000 -47.220976
-25.605166 226.000000 -44.522635
-25.605166 225.000000 -44.522635
-25.605166 224.000000 -44.522635
-25.605166 223.000000 -44.522635
-25.605166 222.000000 -44.522635
-25.605166 221.000000 -44.522635
-25.605166 220.000000 -44.522635
-25.605166 219.000000 -44.522635
-25.605166 218.000000 -44.522635
-25.605166 217.000000 -44.522635
-25.605166 216.000000 -44.522635
-25.605166 200.000000 -44.522635
-27.156995 199.000000 -47.220976
-27.156995 198.000000 -47.220976
-27.156995 197.000000 -47.220976
-27.156995 196.000000 -47.220976
-27.156995 195.000000 -47.220976
-25.605166 194.000000 -44.522635
-25.605166 193.000000 -44.522635
-233.550154 191.000000 -406.100396
-31.812479 187.000000 -55.316001
-31.812479 186.000000 -55.316001
-36.467964 181.000000 -63.411025
10.862798 178.000000 18.888390
-40.347535 177.000000 -70.156879
-41.123449 176.000000 -71.506050
-41.123449 175.000000 -71.506050
-41.899363 174.000000 -72.855220
-267.690376 173.000000 -465.463909
-42.675277 173.000000 -74.204391
17.846025 173.000000 31.030927
-42.675277 172.000000 -74.204391
-42.675277 171.000000 -74.204391
-44.227106 170.000000 -76.902733
-44.227106 169.000000 -76.902733
-44.227106 168.000000 -76.902733
-43.451191 167.000000 -75.553562
-42.675277 166.000000 -74.204391
-261.483062 165.000000 -454.670543
-180.787993 165.000000 -314.356785
-42.675277 165.000000 -74.204391
-42.675277 164.000000 -74.204391
-42.675277 163.000000 -74.204391
-245.964780 162.000000 -427.687128
-42.675277 162.000000 -74.204391
-42.675277 161.000000 -74.204391
-101.644751 157.000000 -176.741368
-42.675277 144.000000 -74.204391
-44.227106 143.000000 -76.902733
-43.451191 142.000000 -75.553562
-263.034891 141.000000 -457.368884
-42.675277 141.000000 -74.204391
-41.123449 140.000000 -71.506050
-228.894669 139.000000 -398.005371
-41.123449 139.000000 -71.506050
-40.347535 138.000000 -70.156879
-40.347535 137.000000 -70.156879
-40.347535 136.000000 -70.156879
-40.347535 135.000000 -70.156879
-41.123449 134.000000 -71.506050
-42.675277 133.000000 -74.204391
-42.675277 132.000000 -74.204391
-44.227106 131.000000 -76.902733
-44.227106 130.000000 -76.902733
-44.227106 129.000000 -76.902733
-45.003020 128.000000 -78.251903
-241.309295 127.000000 -419.592103
-44.227106 127.000000 -76.902733
-44.227106 126.000000 -76.902733
-44.227106 125.000000 -76.902733
-44.227106 124.000000 -76.902733
-44.227106 123.000000 -76.902733
-44.227106 122.000000 -76.902733
-44.227106 121.000000 -76.902733
-41.899363 118.000000 -72.855220
-180.012079 117.000000 -313.007614
-42.675277 117.000000 -74.204391
-42.675277 116.000000 -74.204391
-42.675277 115.000000 -74.204391
-42.675277 114.000000 -74.204391
-42.675277 113.000000 -74.204391
-42.675277 112.000000 -74.204391
-41.123449 111.000000 -71.506050
-41.123449 110.000000 -71.506050
-41.123449 109.000000 -71.506050
-41.123449 108.000000 -71.506050
-42.675277 107.000000 -74.204391
-42.675277 106.000000 -74.204391
-42.675277 105.000000 -74.204391
-42.675277 104.000000 -74.204391
-41.123449 103.000000 -71.506050
-41.123449 102.000000 -71.506050
-60.521302 101.000000 -105.235318
-41.123449 101.000000 -71.506050
-41.899363 100.000000 -72.855220
40.347535 100.000000 70.156879
-263.034891 99.000000 -457.368884
-41.899363 99.000000 -72.855220
-42.675277 98.000000 -74.204391
-41.123449 97.000000 -71.506050
-42.675277 92.000000 -74.204391
-42.675277 91.000000 -74.204391
-41.123449 90.000000 -71.506050
-57.417646 69.000000 -99.838635
-128.801746 61.000000 -223.962344
45.003020 58.000000 78.251903
-134.233145 57.000000 -233.406540
-134.233145 56.000000 -233.406540
-55.865818 50.000000 -97.140294
224.239184 48.000000 389.910347
-55.089903 47.000000 -95.791123
-53.538075 46.000000 -93.092782
-138.888630 44.000000 -241.501564
-261.483062 31.000000 -454.670543
-260.707148 27.000000 -453.321372
-260.707148 26.000000 -453.321372
-40.347535 25.000000 -70.156879
-41.123449 24.000000 -71.506050
-41.123449 23.000000 -71.506050
-40.347535 22.000000 -70.156879
-40.347535 21.000000 -70.156879
-40.347535 20.000000 -70.156879
-142.768200 19.000000 -248.247418
-263.034891 17.000000 -457.368884
-260.707148 17.000000 -453.321372
-253.723921 7.000000 -441.178835
-141.992286 1.000000 -246.898247
-212.852051 476.000000 -305.054843
137.151531 469.000000 196.562535
-207.508485 468.000000 -297.396562
-1.781189 467.000000 -2.552760
174.556494 461.000000 250.170498
138.932720 460.000000 199.115295
173.665899 460.000000 248.894118
137.151531 459.000000 196.562535
136.260937 443.000000 195.286154
-163.869362 440.000000 -234.853937
158.525795 438.000000 227.195657
179.009466 434.000000 256.552399
-161.197578 428.000000 -231.024797
-223.539183 426.000000 -320.371404
30.280208 426.000000 43.396923
30.280208 425.000000 43.396923
192.368381 421.000000 275.698100
-274.303062 419.000000 -393.125069
-15.140104 419.000000 -21.698462
-15.140104 418.000000 -21.698462
-15.140104 417.000000 -21.698462
-15.140104 416.000000 -21.698462
-15.140104 415.000000 -21.698462
-15.140104 414.000000 -21.698462
-15.140104 413.000000 -21.698462
-15.140104 412.000000 -21.698462
-16.030698 411.000000 -22.974842
-16.921293 410.000000 -24.251222
-16.921293 409.000000 -24.251222
-16.921293 408.000000 -24.251222
-16.921293 407.000000 -24.251222
-16.921293 406.000000 -24.251222
-14.249510 406.000000 -20.422082
-274.303062 405.000000 -393.125069
-16.030698 398.000000 -22.974842
-16.030698 397.000000 -22.974842
-16.921293 396.000000 -24.251222
-18.702481 395.000000 -26.803982
-17.811887 394.000000 -25.527602
-17.811887 393.000000 -25.527602
-18.702481 392.000000 -26.803982
-18.702481 391.000000 -26.803982
-20.483670 390.000000 -29.356742
-20.483670 389.000000 -29.356742
-18.702481 388.000000 -26.803982
-18.702481 387.000000 -26.803982
-18.702481 386.000000 -26.803982
-18.702481 385.000000 -26.803982
-16.921293 384.000000 -24.251222
-18.702481 382.000000 -26.803982
-18.702481 381.000000 -26.803982
-18.702481 380.000000 -26.803982
-306.364459 379.000000 -439.074752
-19.593076 379.000000 -28.080362
-19.593076 378.000000 -28.080362
-20.483670 377.000000 -29.356742
-20.483670 376.000000 -29.356742
-21.374265 375.000000 -30.633122
-21.374265 374.000000 -30.633122
-20.483670 373.000000 -29.356742
-20.483670 372.000000 -29.356742
-20.483670 371.000000 -29.356742
-20.483670 370.000000 -29.356742
-20.483670 369.000000 -29.356742
-20.483670 368.000000 -29.356742
-140.713908 367.000000 -201.668055
-20.483670 367.000000 -29.356742
-20.483670 366.000000 -29.356742
-20.483670 365.000000 -29.356742
-22.264859 364.000000 -31.909502
-22.264859 363.000000 -31.909502
-22.264859 362.000000 -31.909502
-22.264859 361.000000 -31.909502
-22.264859 360.000000 -31.909502
-22.264859 359.000000 -31.909502
-22.264859 356.000000 -31.909502
-23.155453 355.000000 -33.185882
-24.046048 354.000000 -34.462263
-24.046048 353.000000 -34.462263
-24.046048 352.000000 -34.462263
-24.046048 351.000000 -34.462263
-24.046048 350.000000 -34.462263
29.389614 350.000000 42.120543
-24.046048 349.000000 -34.462263
-24.046048 348.000000 -34.462263
-24.046048 347.000000 -34.462263
-24.046048 346.000000 -34.462263
-24.046048 345.000000 -34.462263
-24.046048 344.000000 -34.462263
-24.046048 343.000000 -34.462263
-25.827236 342.000000 -37.015023
-25.827236 341.000000 -37.015023
-25.827236 340.000000 -37.015023
-25.827236 339.000000 -37.015023
-24.046048 338.000000 -34.462263
-24.046048 337.000000 -34.462263
-25.827236 336.000000 -37.015023
-25.827236 335.000000 -37.015023
42.748529 335.000000 61.266245
-25.827236 334.000000 -37.015023
-25.827236 333.000000 -37.015023
-27.608425 332.000000 -39.567783
-27.608425 331.000000 -39.567783
-248.475825 330.000000 -356.110046
-25.827236 330.000000 -37.015023
-25.827236 329.000000 -37.015023
-25.827236 328.000000 -37.015023
-27.608425 327.000000 -39.567783
-27.608425 326.000000 -39.567783
-27.608425 325.000000 -39.567783
-25.827236 324.000000 -37.015023
-25.827236 323.000000 -37.015023
-26.717831 322.000000 -38.291403
-26.717831 321.000000 -38.291403
-29.389614 320.000000 -42.120543
-27.608425 320.000000 -39.567783
-29.389614 319.000000 -42.120543
-27.608425 318.000000 -39.567783
-27.608425 317.000000 -39.567783
-27.608425 316.000000 -39.567783
-27.608425 315.000000 -39.567783
-27.608425 314.000000 -39.567783
-27.608425 313.000000 -39.567783
-27.608425 312.000000 -39.567783
-27.608425 311.000000 -39.567783
-27.608425 310.000000 -39.567783
-27.608425 309.000000 -39.567783
-163.869362 308.000000 -234.853937
-29.389614 308.000000 -42.120543
-29.389614 307.000000 -42.120543
-29.389614 306.000000 -42.120543
-29.389614 305.000000 -42.120543
49.873284 305.000000 71.477285
-186.134220 304.000000 -266.763440
-29.389614 304.000000 -42.120543
-29.389614 303.000000 -42.120543
-29.389614 302.000000 -42.120543
-29.389614 301.000000 -42.120543
-29.389614 300.000000 -42.120543
-29.389614 299.000000 -42.120543
-29.389614 298.000000 -42.120543
-29.389614 297.000000 -42.120543
-29.389614 296.000000 -42.120543
-300.130298 295.000000 -430.140092
-29.389614 295.000000 -42.120543
-29.389614 294.000000 -42.120543
-291.224355 293.000000 -417.376291
-29.389614 293.000000 -42.120543
-291.224355 292.000000 -417.376291
-29.389614 292.000000 -42.120543
-29.389614 291.000000 -42.120543
-29.389614 290.000000 -42.120543
-29.389614 289.000000 -42.120543
-29.389614 288.000000 -42.120543
-29.389614 287.000000 -42.120543
-27.608425 286.000000 -39.567783
-27.608425 285.000000 -39.567783
-29.389614 284.000000 -42.120543
-29.389614 283.000000 -42.120543
-203.055513 282.000000 -291.014661
-29.389614 282.000000 -42.120543
-29.389614 281.000000 -42.120543
-29.389614 280.000000 -42.120543
-31.170802 279.000000 -44.673303
-254.709986 278.000000 -365.044707
-31.170802 278.000000 -44.673303
-29.389614 278.000000 -42.120543
-282.318411 277.000000 -404.612490
-29.389614 277.000000 -42.120543
-29.389614 276.000000 -42.120543
-29.389614 275.000000 -42.120543
-29.389614 274.000000 -42.120543
-29.389614 273.000000 -42.120543
-29.389614 272.000000 -42.120543
-29.389614 271.000000 -42.120543
-29.389614 270.000000 -42.120543
-291.224355 269.000000 -417.376291
-288.552571 269.000000 -413.547151
-29.389614 269.000000 -42.120543
-29.389614 268.000000 -42.120543
-29.389614 267.000000 -42.120543
-29.389614 266.000000 -42.120543
-29.389614 265.000000 -42.120543
-29.389614 264.000000 -42.120543
-29.389614 263.000000 -42.120543
-212.852051 262.000000 -305.054843
-29.389614 262.000000 -42.120543
-29.389614 261.000000 -42.120543
-29.389614 260.000000 -42.120543
-29.389614 259.000000 -42.120543
-29.389614 258.000000 -42.120543
-29.389614 257.000000 -42.120543
-29.389614 256.000000 -42.120543
-29.389614 255.000000 -42.120543
-276.084250 254.000000 -395.677829
-29.389614 254.000000 -42.120543
-31.170802 253.000000 -44.673303
-31.170802 252.000000 -44.673303
-29.389614 251.000000 -42.120543
-304.583270 250.000000 -436.521992
-51.654473 250.000000 -74.030045
-29.389614 250.000000 -42.120543
-29.389614 249.000000 -42.120543
-27.608425 248.000000 -39.567783
-27.608425 247.000000 -39.567783
-29.389614 246.000000 -42.120543
-31.170802 245.000000 -44.673303
-31.170802 244.000000 -44.673303
-31.170802 243.000000 -44.673303
-31.170802 242.000000 -44.673303
-30.280208 241.000000 -43.396923
-30.280208 240.000000 -43.396923
-31.170802 239.000000 -44.673303
-31.170802 238.000000 -44.673303
-31.170802 237.000000 -44.673303
-31.170802 236.000000 -44.673303
-31.170802 235.000000 -44.673303
-31.170802 234.000000 -44.673303
-31.170802 233.000000 -44.673303
-31.170802 232.000000 -44.673303
-30.280208 231.000000 -43.396923
-29.389614 230.000000 -42.120543
-29.389614 229.000000 -42.120543
-29.389614 228.000000 -42.120543
-29.389614 227.000000 -42.120543
-301.020892 226.000000 -431.416472
-29.389614 226.000000 -42.120543
-303.692675 225.000000 -435.245612
-301.911487 225.000000 -432.692852
-29.389614 225.000000 -42.120543
-122.011427 224.000000 -174.864073
-29.389614 224.000000 -42.120543
-29.389614 223.000000 -42.120543
-29.389614 222.000000 -42.120543
-31.170802 221.000000 -44.673303
-31.170802 220.000000 -44.673303
-30.280208 219.000000 -43.396923
-30.280208 218.000000 -43.396923
-30.280208 217.000000 -43.396923
-30.280208 216.000000 -43.396923
-238.679287 215.000000 -342.069865
-29.389614 215.000000 -42.120543
-29.389614 214.000000 -42.120543
30.280208 210.000000 43.396923
-68.575765 205.000000 -98.281267
-247.585231 202.000000 -354.833666
260.053552 202.000000 372.702988
26.717831 200.000000 38.291403
-29.389614 198.000000 -42.120543
-29.389614 197.000000 -42.120543
-29.389614 196.000000 -42.120543
-29.389614 195.000000 -42.120543
-29.389614 194.000000 -42.120543
-29.389614 193.000000 -42.120543
-29.389614 192.000000 -42.120543
-38.295557 184.000000 -54.884344
-38.295557 183.000000 -54.884344
-40.076746 182.000000 -57.437104
-40.076746 181.000000 -57.437104
-41.857935 180.000000 -59.989864
-43.639123 179.000000 -62.542625
-43.639123 178.000000 -62.542625
-41.857935 178.000000 -59.989864
-43.639123 177.000000 -62.542625
-41.857935 177.000000 -59.989864
-43.639123 176.000000 -62.542625
146.057474 176.000000 209.326335
-43.639123 175.000000 -62.542625
-45.420312 174.000000 -65.095385
-305.473864 173.000000 -437.798372
-206.617891 173.000000 -296.120182
-45.420312 173.000000 -65.095385
-296.567921 172.000000 -425.034571
-48.092095 172.000000 -68.924525
28.499019 172.000000 40.844163
-297.458515 171.000000 -426.310951
-295.677326 171.000000 -423.758191
-48.982690 171.000000 -70.200905
28.499019 171.000000 40.844163
-302.802081 170.000000 -433.969232
-48.982690 170.000000 -70.200905
-299.239704 169.000000 -428.863712
-49.873284 169.000000 -71.477285
-48.982690 168.000000 -70.200905
-48.982690 167.000000 -70.200905
-49.873284 166.000000 -71.477285
-50.763878 165.000000 -72.753665
-40.076746 165.000000 -57.437104
-48.982690 164.000000 -70.200905
-48.982690 163.000000 -70.200905
-48.982690 162.000000 -70.200905
-48.982690 161.000000 -70.200905
-47.201501 160.000000 -67.648145
-47.201501 159.000000 -67.648145
-298.349109 158.000000 -427.587332
-48.982690 158.000000 -70.200905
-48.982690 157.000000 -70.200905
-50.763878 156.000000 -72.753665
-50.763878 155.000000 -72.753665
-40.967340 155.000000 -58.713484
-50.763878 154.000000 -72.753665
-40.967340 154.000000 -58.713484
-50.763878 153.000000 -72.753665
-50.763878 152.000000 -72.753665
-50.763878 151.000000 -72.753665
-50.763878 150.000000 -72.753665
-50.763878 149.000000 -72.753665
-39.186152 149.000000 -56.160724
-48.982690 148.000000 -70.200905
-285.880788 147.000000 -409.718010
-48.982690 147.000000 -70.200905
-48.982690 146.000000 -70.200905
-50.763878 145.000000 -72.753665
-50.763878 144.000000 -72.753665
-50.763878 143.000000 -72.753665
-301.911487 142.000000 -432.692852
-50.763878 142.000000 -72.753665
-287.661977 141.000000 -412.270770
-48.982690 141.000000 -70.200905
-48.092095 140.000000 -68.924525
-48.092095 139.000000 -68.924525
-48.982690 138.000000 -70.200905
42.748529 138.000000 61.266245
-48.982690 137.000000 -70.200905
-235.116910 136.000000 -336.964345
-48.982690 136.000000 -70.200905
-48.982690 135.000000 -70.200905
-48.982690 134.000000 -70.200905
-50.763878 133.000000 -72.753665
-50.763878 132.000000 -72.753665
-50.763878 131.000000 -72.753665
43.639123 131.000000 62.542625
-50.763878 130.000000 -72.753665
-48.982690 129.000000 -70.200905
-47.201501 128.000000 -67.648145
-47.201501 127.000000 -67.648145
-47.201501 126.000000 -67.648145
-298.349109 125.000000 -427.587332
-47.201501 125.000000 -67.648145
-40.076746 125.000000 -57.437104
-48.982690 124.000000 -70.200905
-39.186152 124.000000 -56.160724
-48.982690 123.000000 -70.200905
-48.982690 122.000000 -70.200905
-48.982690 121.000000 -70.200905
257.381769 121.000000 368.873847
-190.587192 120.000000 -273.145340
-48.982690 120.000000 -70.200905
-293.005543 119.000000 -419.929051
-48.092095 119.000000 -68.924525
-47.201501 118.000000 -67.648145
-47.201501 117.000000 -67.648145
48.982690 117.000000 70.200905
-47.201501 116.000000 -67.648145
47.201501 116.000000 67.648145
-47.201501 115.000000 -67.648145
47.201501 115.000000 67.648145
53.435661 115.000000 76.582806
-47.201501 114.000000 -67.648145
48.092095 114.000000 68.924525
-48.092095 113.000000 -68.924525
-48.092095 112.000000 -68.924525
-47.201501 111.000000 -67.648145
-47.201501 110.000000 -67.648145
-47.201501 109.000000 -67.648145
252.038203 109.000000 361.215567
-47.201501 108.000000 -67.648145
252.038203 108.000000 361.215567
252.038203 107.000000 361.215567
-307.255053 105.000000 -440.351133
246.694637 105.000000 353.557286
181.681249 104.000000 260.381539
250.257014 104.000000 358.662806
250.257014 103.000000 358.662806
-298.349109 102.000000 -427.587332
249.366420 102.000000 357.386426
249.366420 101.000000 357.386426
252.928797 101.000000 362.491947
-69.466360 99.000000 -99.557647
73.028737 98.000000 104.663168
45.420312 97.000000 65.095385
72.138143 97.000000 103.386788
46.310907 96.000000 66.371765
73.028737 96.000000 104.663168
73.919332 95.000000 105.939548
-112.214889 93.000000 -160.823892
253.819392 92.000000 363.768327
34.733180 87.000000 49.778824
34.733180 86.000000 49.778824
37.404963 86.000000 53.607964
53.435661 86.000000 76.582806
64.122794 86.000000 91.899367
35.623774 85.000000 51.055204
45.420312 85.000000 65.095385
55.216850 85.000000 79.135566
64.122794 85.000000 91.899367
73.919332 85.000000 105.939548
35.623774 84.000000 51.055204
55.216850 84.000000 79.135566
60.560416 84.000000 86.793846
65.013388 84.000000 93.175747
76.591115 84.000000 109.768688
36.514369 83.000000 52.331584
55.216850 83.000000 79.135566
65.013388 83.000000 93.175747
55.216850 82.000000 79.135566
65.013388 82.000000 93.175747
-113.105483 81.000000 -162.100272
-113.105483 80.000000 -162.100272
-113.996078 79.000000 -163.376652
45.420312 79.000000 65.095385
84.606464 79.000000 121.256109
-116.667861 78.000000 -167.205792
84.606464 78.000000 121.256109
35.623774 77.000000 51.055204
58.779228 77.000000 84.241086
85.497058 77.000000 122.532489
35.623774 76.000000 51.055204
58.779228 76.000000 84.241086
75.700520 76.000000 108.492308
86.387653 76.000000 123.808869
244.913448 76.000000 351.004526
35.623774 75.000000 51.055204
58.779228 75.000000 84.241086
75.700520 75.000000 108.492308
-138.932720 74.000000 -199.115295
36.514369 74.000000 52.331584
63.232199 74.000000 90.622987
-140.713908 73.000000 -201.668055
36.514369 73.000000 52.331584
53.435661 73.000000 76.582806
63.232199 73.000000 90.622987
-142.495097 72.000000 -204.220815
-140.713908 72.000000 -201.668055
36.514369 72.000000 52.331584
53.435661 72.000000 76.582806
70.356954 72.000000 100.834027
246.694637 72.000000 353.557286
-138.932720 71.000000 -199.115295
38.295557 71.000000 54.884344
53.435661 71.000000 76.582806
64.122794 71.000000 91.899367
70.356954 71.000000 100.834027
247.585231 71.000000 354.833666
38.295557 70.000000 54.884344
45.420312 70.000000 65.095385
63.232199 70.000000 90.622987
38.295557 69.000000 54.884344
229.773344 69.000000 329.306064
220.867400 68.000000 316.542263
63.232199 67.000000 90.622987
216.414429 67.000000 310.160363
220.867400 67.000000 316.542263
33.842586 66.000000 48.502444
61.451011 66.000000 88.070227
216.414429 66.000000 310.160363
-94.403002 65.000000 -135.296290
61.451011 65.000000 88.070227
75.700520 65.000000 108.492308
120.230238 65.000000 172.311313
216.414429 65.000000 310.160363
59.669822 64.000000 85.517466
61.451011 64.000000 88.070227
73.028737 64.000000 104.663168
92.621813 64.000000 132.743530
94.403002 64.000000 135.296290
38.295557 63.000000 54.884344
45.420312 63.000000 65.095385
52.545067 63.000000 75.306426
59.669822 63.000000 85.517466
62.341605 63.000000 89.346607
73.028737 63.000000 104.663168
93.512407 63.000000 134.019910
145.166880 63.000000 208.049955
45.420312 62.000000 65.095385
54.326256 62.000000 77.859186
62.341605 62.000000 89.346607
72.138143 62.000000 103.386788
89.950030 62.000000 128.914390
93.512407 62.000000 134.019910
146.057474 62.000000 209.326335
-43.639123 61.000000 -62.542625
34.733180 61.000000 49.778824
55.216850 61.000000 79.135566
62.341605 61.000000 89.346607
68.575765 61.000000 98.281267
73.028737 61.000000 104.663168
89.950030 61.000000 128.914390
94.403002 61.000000 135.296290
-268.959496 60.000000 -385.466788
34.733180 60.000000 49.778824
56.107444 60.000000 80.411946
58.779228 60.000000 84.241086
67.685171 60.000000 97.004887
73.028737 60.000000 104.663168
76.591115 60.000000 109.768688
89.950030 60.000000 128.914390
94.403002 60.000000 135.296290
-268.068901 59.000000 -384.190408
-264.506524 59.000000 -379.084888
35.623774 59.000000 51.055204
56.107444 59.000000 80.411946
60.560416 59.000000 86.793846
67.685171 59.000000 97.004887
73.028737 59.000000 104.663168
76.591115 59.000000 109.768688
91.731219 59.000000 131.467150
94.403002 59.000000 135.296290
98.855974 59.000000 141.678190
101.527757 59.000000 145.507331
187.915409 59.000000 269.316200
226.210966 59.000000 324.200544
-264.506524 58.000000 -379.084888
56.107444 58.000000 80.411946
61.451011 58.000000 88.070227
73.028737 58.000000 104.663168
78.372303 58.000000 112.321448
91.731219 58.000000 131.467150
100.637162 58.000000 144.230951
227.101561 58.000000 325.476924
56.107444 57.000000 80.411946
63.232199 57.000000 90.622987
68.575765 57.000000 98.281267
76.591115 57.000000 109.768688
80.153492 57.000000 114.874208
91.731219 57.000000 131.467150
100.637162 57.000000 144.230951
44.529718 56.000000 63.819005
52.545067 56.000000 75.306426
56.107444 56.000000 80.411946
76.591115 56.000000 109.768688
80.153492 56.000000 114.874208
84.606464 56.000000 121.256109
91.731219 56.000000 131.467150
44.529718 55.000000 63.819005
70.356954 55.000000 100.834027
80.153492 55.000000 114.874208
85.497058 55.000000 122.532489
91.731219 55.000000 131.467150
95.293596 55.000000 136.572670
97.965379 55.000000 140.401810
44.529718 54.000000 63.819005
70.356954 54.000000 100.834027
73.028737 54.000000 104.663168
79.262898 54.000000 113.597828
97.965379 54.000000 140.401810
194.149570 54.000000 278.250861
45.420312 53.000000 65.095385
57.888633 53.000000 82.964706
68.575765 53.000000 98.281267
70.356954 53.000000 100.834027
73.028737 53.000000 104.663168
98.855974 53.000000 141.678190
108.652511 53.000000 155.718371
179.900060 53.000000 257.828779
194.149570 53.000000 278.250861
45.420312 52.000000 65.095385
56.998039 52.000000 81.688326
61.451011 52.000000 88.070227
67.685171 52.000000 97.004887
69.466360 52.000000 99.557647
72.138143 52.000000 103.386788
74.809926 52.000000 107.215928
88.168841 52.000000 126.361629
98.855974 52.000000 141.678190
107.761917 52.000000 154.441991
114.886672 52.000000 164.653032
179.900060 52.000000 257.828779
241.351071 52.000000 345.899006
45.420312 51.000000 65.095385
56.107444 51.000000 80.411946
67.685171 51.000000 97.004887
101.527757 51.000000 145.507331
107.761917 51.000000 154.441991
140.713908 51.000000 201.668055
45.420312 50.000000 65.095385
56.998039 50.000000 81.688326
58.779228 50.000000 84.241086
64.122794 50.000000 91.899367
90.840624 50.000000 130.190770
107.761917 50.000000 154.441991
139.823314 50.000000 200.391675
230.663938 50.000000 330.582444
-292.114949 49.000000 -418.652671
44.529718 49.000000 63.819005
52.545067 49.000000 75.306426
54.326256 49.000000 77.859186
56.998039 49.000000 81.688326
63.232199 49.000000 90.622987
75.700520 49.000000 108.492308
81.934681 49.000000 117.426969
89.950030 49.000000 128.914390
94.403002 49.000000 135.296290
109.543106 49.000000 156.994752
179.900060 49.000000 257.828779
230.663938 49.000000 330.582444
232.445127 49.000000 333.135205
-143.385691 48.000000 -205.497195
44.529718 48.000000 63.819005
52.545067 48.000000 75.306426
55.216850 48.000000 79.135566
63.232199 48.000000 90.622987
73.919332 48.000000 105.939548
77.481709 48.000000 111.045068
79.262898 48.000000 113.597828
81.934681 48.000000 117.426969
87.278247 48.000000 125.085249
91.731219 48.000000 131.467150
109.543106 48.000000 156.994752
234.226316 48.000000 335.687965
51.654473 47.000000 74.030045
63.232199 47.000000 90.622987
73.028737 47.000000 104.663168
77.481709 47.000000 111.045068
83.715869 47.000000 119.979729
48.982690 46.000000 70.200905
63.232199 46.000000 90.622987
73.028737 46.000000 104.663168
79.262898 46.000000 113.597828
168.322333 46.000000 241.235838
-300.130298 45.000000 -430.140092
44.529718 45.000000 63.819005
48.982690 45.000000 70.200905
63.232199 45.000000 90.622987
74.809926 45.000000 107.215928
79.262898 45.000000 113.597828
169.212928 45.000000 242.512218
45.420312 44.000000 65.095385
48.982690 44.000000 70.200905
51.654473 44.000000 74.030045
56.107444 44.000000 80.411946
63.232199 44.000000 90.622987
75.700520 44.000000 108.492308
81.044086 44.000000 116.150589
200.383730 44.000000 287.185521
48.982690 43.000000 70.200905
50.763878 43.000000 72.753665
56.107444 43.000000 80.411946
63.232199 43.000000 90.622987
68.575765 43.000000 98.281267
73.919332 43.000000 105.939548
75.700520 43.000000 108.492308
81.044086 43.000000 116.150589
152.291635 43.000000 218.260996
-299.239704 42.000000 -428.863712
48.982690 42.000000 70.200905
51.654473 42.000000 74.030045
65.013388 42.000000 93.175747
68.575765 42.000000 98.281267
73.028737 42.000000 104.663168
75.700520 42.000000 108.492308
79.262898 42.000000 113.597828
85.497058 42.000000 122.532489
153.182229 42.000000 219.537376
48.982690 41.000000 70.200905
68.575765 41.000000 98.281267
73.919332 41.000000 105.939548
75.700520 41.000000 108.492308
80.153492 41.000000 114.874208
81.934681 41.000000 117.426969
153.182229 41.000000 219.537376
67.685171 40.000000 97.004887
73.919332 40.000000 105.939548
75.700520 40.000000 108.492308
81.934681 40.000000 117.426969
153.182229 40.000000 219.537376
160.306984 40.000000 229.748417
-83.715869 39.000000 -119.979729
63.232199 39.000000 90.622987
67.685171 39.000000 97.004887
73.919332 39.000000 105.939548
81.044086 39.000000 116.150589
82.825275 39.000000 118.703349
84.606464 39.000000 121.256109
155.854012 39.000000 223.366516
-84.606464 38.000000 -121.256109
63.232199 38.000000 90.622987
74.809926 38.000000 107.215928
82.825275 38.000000 118.703349
85.497058 38.000000 122.532489
61.451011 37.000000 88.070227
63.232199 37.000000 90.622987
65.013388 37.000000 93.175747
69.466360 37.000000 99.557647
74.809926 37.000000 107.215928
82.825275 37.000000 118.703349
85.497058 37.000000 122.532489
-300.130298 36.000000 -430.140092
61.451011 36.000000 88.070227
63.232199 36.000000 90.622987
65.013388 36.000000 93.175747
74.809926 36.000000 107.215928
78.372303 36.000000 112.321448
82.825275 36.000000 118.703349
84.606464 36.000000 121.256109
86.387653 36.000000 123.808869
89.950030 36.000000 128.914390
92.621813 36.000000 132.743530
158.525795 36.000000 227.195657
-300.130298 35.000000 -430.140092
-290.333760 35.000000 -416.099911
73.919332 35.000000 105.939548
77.481709 35.000000 111.045068
82.825275 35.000000 118.703349
84.606464 35.000000 121.256109
86.387653 35.000000 123.808869
89.950030 35.000000 128.914390
92.621813 35.000000 132.743530
101.527757 35.000000 145.507331
105.980728 35.000000 151.889231
158.525795 35.000000 227.195657
218.195617 35.000000 312.713123
71.247549 34.000000 102.110408
77.481709 34.000000 111.045068
82.825275 34.000000 118.703349
86.387653 34.000000 123.808869
92.621813 34.000000 132.743530
100.637162 34.000000 144.230951
104.199540 34.000000 149.336471
106.871323 34.000000 153.165611
218.195617 34.000000 312.713123
70.356954 33.000000 100.834027
77.481709 33.000000 111.045068
82.825275 33.000000 118.703349
87.278247 33.000000 125.085249
90.840624 33.000000 130.190770
92.621813 33.000000 132.743530
100.637162 33.000000 144.230951
-162.978767 32.000000 -233.577557
48.982690 32.000000 70.200905
71.247549 32.000000 102.110408
82.825275 32.000000 118.703349
89.059436 32.000000 127.638009
90.840624 32.000000 130.190770
100.637162 32.000000 144.230951
-162.978767 31.000000 -233.577557
48.092095 31.000000 68.924525
72.138143 31.000000 103.386788
82.825275 31.000000 118.703349
89.950030 31.000000 128.914390
92.621813 31.000000 132.743530
95.293596 31.000000 136.572670
98.855974 31.000000 141.678190
101.527757 31.000000 145.507331
104.199540 31.000000 149.336471
105.980728 31.000000 151.889231
114.886672 31.000000 164.653032
176.337683 31.000000 252.723259
-162.978767 30.000000 -233.577557
46.310907 30.000000 66.371765
82.825275 30.000000 118.703349
86.387653 30.000000 123.808869
98.855974 30.000000 141.678190
101.527757 30.000000 145.507331
105.980728 30.000000 151.889231
176.337683 30.000000 252.723259
227.101561 30.000000 325.476924
44.529718 29.000000 63.819005
82.825275 29.000000 118.703349
84.606464 29.000000 121.256109
88.168841 29.000000 126.361629
91.731219 29.000000 131.467150
93.512407 29.000000 134.019910
99.746568 29.000000 142.954571
176.337683 29.000000 252.723259
44.529718 28.000000 63.819005
68.575765 28.000000 98.281267
80.153492 28.000000 114.874208
82.825275 28.000000 118.703349
85.497058 28.000000 122.532489
89.950030 28.000000 128.914390
68.575765 27.000000 98.281267
71.247549 27.000000 102.110408
78.372303 27.000000 112.321448
80.153492 27.000000 114.874208
82.825275 27.000000 118.703349
85.497058 27.000000 122.532489
87.278247 27.000000 125.085249
91.731219 27.000000 131.467150
93.512407 27.000000 134.019910
106.871323 27.000000 153.165611
123.792616 27.000000 177.416833
202.164919 27.000000 289.738281
-299.239704 26.000000 -428.863712
43.639123 26.000000 62.542625
81.044086 26.000000 116.150589
84.606464 26.000000 121.256109
91.731219 26.000000 131.467150
43.639123 25.000000 62.542625
85.497058 25.000000 122.532489
43.639123 24.000000 62.542625
85.497058 24.000000 122.532489
94.403002 24.000000 135.296290
107.761917 24.000000 154.441991
113.105483 24.000000 162.100272
38.295557 23.000000 54.884344
42.748529 23.000000 61.266245
81.044086 23.000000 116.150589
82.825275 23.000000 118.703349
91.731219 23.000000 131.467150
95.293596 23.000000 136.572670
103.308945 23.000000 148.060091
105.980728 23.000000 151.889231
73.028737 22.000000 104.663168
81.044086 22.000000 116.150589
83.715869 22.000000 119.979729
88.168841 22.000000 126.361629
104.199540 22.000000 149.336471
224.429778 22.000000 321.647784
-49.873284 21.000000 -71.477285
68.575765 21.000000 98.281267
72.138143 21.000000 103.386788
83.715869 21.000000 119.979729
86.387653 21.000000 123.808869
104.199540 21.000000 149.336471
225.320372 21.000000 322.924164
-290.333760 20.000000 -416.099911
34.733180 20.000000 49.778824
45.420312 20.000000 65.095385
68.575765 20.000000 98.281267
84.606464 20.000000 121.256109
104.199540 20.000000 149.336471
154.963418 20.000000 222.090136
225.320372 20.000000 322.924164
38.295557 19.000000 54.884344
41.857935 19.000000 59.989864
104.199540 19.000000 149.336471
107.761917 19.000000 154.441991
111.324295 19.000000 159.547512
184.353032 19.000000 264.210680
43.639123 18.000000 62.542625
52.545067 18.000000 75.306426
55.216850 18.000000 79.135566
108.652511 18.000000 155.718371
111.324295 18.000000 159.547512
-300.130298 17.000000 -430.140092
43.639123 17.000000 62.542625
52.545067 17.000000 75.306426
75.700520 17.000000 108.492308
77.481709 17.000000 111.045068
105.980728 17.000000 151.889231
111.324295 17.000000 159.547512
154.963418 17.000000 222.090136
239.569882 17.000000 343.346245
241.351071 17.000000 345.899006
244.022854 17.000000 349.728146
-300.130298 16.000000 -430.140092
-293.005543 16.000000 -419.929051
-102.418351 16.000000 -146.783711
43.639123 16.000000 62.542625
52.545067 16.000000 75.306426
75.700520 16.000000 108.492308
77.481709 16.000000 111.045068
99.746568 16.000000 142.954571
102.418351 16.000000 146.783711
111.324295 16.000000 159.547512
153.182229 16.000000 219.537376
239.569882 16.000000 343.346245
244.022854 16.000000 349.728146
-293.005543 15.000000 -419.929051
43.639123 15.000000 62.542625
52.545067 15.000000 75.306426
75.700520 15.000000 108.492308
79.262898 15.000000 113.597828
84.606464 15.000000 121.256109
109.543106 15.000000 156.994752
153.182229 15.000000 219.537376
239.569882 15.000000 343.346245
244.022854 15.000000 349.728146
43.639123 14.000000 62.542625
53.435661 14.000000 76.582806
56.107444 14.000000 80.411946
79.262898 14.000000 113.597828
82.825275 14.000000 118.703349
85.497058 14.000000 122.532489
104.199540 14.000000 149.336471
110.433700 14.000000 158.271132
234.226316 14.000000 335.687965
239.569882 14.000000 343.346245
36.514369 13.000000 52.331584
43.639123 13.000000 62.542625
56.107444 13.000000 80.411946
70.356954 13.000000 100.834027
73.919332 13.000000 105.939548
78.372303 13.000000 112.321448
83.715869 13.000000 119.979729
86.387653 13.000000 123.808869
95.293596 13.000000 136.572670
101.527757 13.000000 145.507331
107.761917 13.000000 154.441991
110.433700 13.000000 158.271132
227.992155 13.000000 326.753304
239.569882 13.000000 343.346245
-40.076746 12.000000 -57.437104
38.295557 12.000000 54.884344
43.639123 12.000000 62.542625
46.310907 12.000000 66.371765
74.809926 12.000000 107.215928
78.372303 12.000000 112.321448
86.387653 12.000000 123.808869
95.293596 12.000000 136.572670
101.527757 12.000000 145.507331
120.230238 12.000000 172.311313
227.101561 12.000000 325.476924
228.882750 12.000000 328.029684
-162.088173 11.000000 -232.301177
-40.967340 11.000000 -58.713484
41.857935 11.000000 59.989864
43.639123 11.000000 62.542625
51.654473 11.000000 74.030045
53.435661 11.000000 76.582806
69.466360 11.000000 99.557647
74.809926 11.000000 107.215928
82.825275 11.000000 118.703349
86.387653 11.000000 123.808869
89.950030 11.000000 128.914390
101.527757 11.000000 145.507331
105.980728 11.000000 151.889231
227.101561 11.000000 325.476924
228.882750 11.000000 328.029684
-41.857935 10.000000 -59.989864
41.857935 10.000000 59.989864
67.685171 10.000000 97.004887
72.138143 10.000000 103.386788
75.700520 10.000000 108.492308
82.825275 10.000000 118.703349
87.278247 10.000000 125.085249
92.621813 10.000000 132.743530
102.418351 10.000000 146.783711
105.980728 10.000000 151.889231
108.652511 10.000000 155.718371
204.836702 10.000000 293.567422
228.882750 10.000000 328.029684
68.575765 9.000000 98.281267
79.262898 9.000000 113.597828
81.044086 9.000000 116.150589
93.512407 9.000000 134.019910
97.074785 9.000000 139.125430
102.418351 9.000000 146.783711
104.199540 9.000000 149.336471
232.445127 9.000000 333.135205
66.794577 8.000000 95.728507
69.466360 8.000000 99.557647
81.044086 8.000000 116.150589
85.497058 8.000000 122.532489
93.512407 8.000000 134.019910
95.293596 8.000000 136.572670
104.199540 8.000000 149.336471
134.479748 8.000000 192.733394
63.232199 7.000000 90.622987
70.356954 7.000000 100.834027
72.138143 7.000000 103.386788
81.044086 7.000000 116.150589
82.825275 7.000000 118.703349
93.512407 7.000000 134.019910
96.184190 7.000000 137.849050
106.871323 7.000000 153.165611
135.370342 7.000000 194.009774
138.932720 7.000000 199.115295
202.164919 7.000000 289.738281
213.742646 7.000000 306.331223
215.523834 7.000000 308.883983
-20.483670 6.000000 -29.356742
54.326256 6.000000 77.859186
63.232199 6.000000 90.622987
70.356954 6.000000 100.834027
73.028737 6.000000 104.663168
78.372303 6.000000 112.321448
82.825275 6.000000 118.703349
93.512407 6.000000 134.019910
174.556494 6.000000 250.170498
-29.389614 5.000000 -42.120543
-18.702481 5.000000 -26.803982
53.435661 5.000000 76.582806
63.232199 5.000000 90.622987
70.356954 5.000000 100.834027
73.028737 5.000000 104.663168
76.591115 5.000000 109.768688
78.372303 5.000000 112.321448
93.512407 5.000000 134.019910
97.965379 5.000000 140.401810
174.556494 5.000000 250.170498
216.414429 5.000000 310.160363
-29.389614 4.000000 -42.120543
-16.921293 4.000000 -24.251222
63.232199 4.000000 90.622987
65.903982 4.000000 94.452127
69.466360 4.000000 99.557647
73.028737 4.000000 104.663168
78.372303 4.000000 112.321448
90.840624 4.000000 130.190770
95.293596 4.000000 136.572670
97.074785 4.000000 139.125430
111.324295 4.000000 159.547512
180.790654 4.000000 259.105159
212.852051 4.000000 305.054843
-29.389614 3.000000 -42.120543
-15.140104 3.000000 -21.698462
43.639123 3.000000 62.542625
51.654473 3.000000 74.030045
66.794577 3.000000 95.728507
69.466360 3.000000 99.557647
73.028737 3.000000 104.663168
91.731219 3.000000 131.467150
95.293596 3.000000 136.572670
98.855974 3.000000 141.678190
114.886672 3.000000 164.653032
120.230238 3.000000 172.311313
180.790654 3.000000 259.105159
183.462437 3.000000 262.934299
212.852051 3.000000 305.054843
251.147608 3.000000 359.939187
-118.449049 2.000000 -169.758553
42.748529 2.000000 61.266245
49.873284 2.000000 71.477285
66.794577 2.000000 95.728507
68.575765 2.000000 98.281267
73.028737 2.000000 104.663168
74.809926 2.000000 107.215928
91.731219 2.000000 131.467150
96.184190 2.000000 137.849050
98.855974 2.000000 141.678190
123.792616 2.000000 177.416833
148.729258 2.000000 213.155476
180.790654 2.000000 259.105159
212.852051 2.000000 305.054843
-120.230238 1.000000 -172.311313
-118.449049 1.000000 -169.758553
23.155453 1.000000 33.185882
42.748529 1.000000 61.266245
66.794577 1.000000 95.728507
68.575765 1.000000 98.281267
74.809926 1.000000 107.215928
91.731219 1.000000 131.467150
93.512407 1.000000 134.019910
96.184190 1.000000 137.849050
98.855974 1.000000 141.678190
118.449049 1.000000 169.758553
122.011427 1.000000 174.864073
123.792616 1.000000 177.416833
259.162958 1.000000 371.426607
157.761604 472.000000 188.631081
-236.642406 468.000000 -282.946621
-235.643915 458.000000 -281.752753
-235.643915 457.000000 -281.752753
223.662021 441.000000 267.426342
223.662021 440.000000 267.426342
-252.618265 436.000000 -302.048503
-252.618265 435.000000 -302.048503
-180.726901 432.000000 -216.090035
176.732936 430.000000 211.314565
-309.532261 422.000000 -370.098956
-230.651459 417.000000 -275.783415
214.675601 417.000000 256.681534
214.675601 416.000000 256.681534
-13.978876 415.000000 -16.714146
-13.978876 410.000000 -16.714146
-13.978876 409.000000 -16.714146
36.944173 407.000000 44.173101
292.557912 404.000000 349.803207
-16.974350 399.000000 -20.295749
-16.974350 398.000000 -20.295749
-16.974350 397.000000 -20.295749
-17.972841 396.000000 -21.489617
-17.972841 395.000000 -21.489617
-18.971332 394.000000 -22.683484
-18.971332 393.000000 -22.683484
-18.971332 392.000000 -22.683484
-18.971332 391.000000 -22.683484
-18.971332 390.000000 -22.683484
-18.971332 389.000000 -22.683484
-18.971332 388.000000 -22.683484
-18.971332 387.000000 -22.683484
-17.972841 386.000000 -21.489617
-17.972841 385.000000 -21.489617
-18.971332 384.000000 -22.683484
-18.971332 383.000000 -22.683484
-18.971332 382.000000 -22.683484
-18.971332 381.000000 -22.683484
-18.971332 380.000000 -22.683484
-18.971332 379.000000 -22.683484
-18.971332 378.000000 -22.683484
57.912488 371.000000 69.244321
46.929085 367.000000 56.111777
-19.969823 363.000000 -23.877352
-19.969823 362.000000 -23.877352
-22.965297 357.000000 -27.458955
-22.965297 356.000000 -27.458955
-22.965297 355.000000 -27.458955
-22.965297 354.000000 -27.458955
-22.965297 353.000000 -27.458955
-22.965297 352.000000 -27.458955
-24.962279 351.000000 -29.846690
-24.962279 350.000000 -29.846690
-24.962279 349.000000 -29.846690
-22.965297 348.000000 -27.458955
-22.965297 347.000000 -27.458955
-24.962279 346.000000 -29.846690
-24.962279 345.000000 -29.846690
-24.962279 344.000000 -29.846690
-24.962279 343.000000 -29.846690
-24.962279 342.000000 -29.846690
-24.962279 341.000000 -29.846690
-24.962279 340.000000 -29.846690
-24.962279 339.000000 -29.846690
-24.962279 338.000000 -29.846690
-24.962279 337.000000 -29.846690
-24.962279 336.000000 -29.846690
-24.962279 335.000000 -29.846690
-26.959261 334.000000 -32.234425
-26.959261 333.000000 -32.234425
-26.959261 332.000000 -32.234425
-26.959261 331.000000 -32.234425
-26.959261 330.000000 -32.234425
-28.956244 329.000000 -34.622160
-28.956244 328.000000 -34.622160
-28.956244 327.000000 -34.622160
28.956244 327.000000 34.622160
-28.956244 326.000000 -34.622160
-28.956244 325.000000 -34.622160
-26.959261 324.000000 -32.234425
-26.959261 323.000000 -32.234425
-28.956244 322.000000 -34.622160
-28.956244 321.000000 -34.622160
-28.956244 320.000000 -34.622160
-27.957753 319.000000 -33.428293
-27.957753 318.000000 -33.428293
-28.956244 317.000000 -34.622160
-251.619774 316.000000 -300.854635
-28.956244 316.000000 -34.622160
-29.954735 315.000000 -35.816028
-28.956244 314.000000 -34.622160
-28.956244 313.000000 -34.622160
-28.956244 312.000000 -34.622160
-28.956244 311.000000 -34.622160
-28.956244 310.000000 -34.622160
-30.953226 309.000000 -37.009896
-28.956244 308.000000 -34.622160
-28.956244 307.000000 -34.622160
-28.956244 306.000000 -34.622160
-28.956244 305.000000 -34.622160
-28.956244 304.000000 -34.622160
-28.956244 303.000000 -34.622160
-28.956244 302.000000 -34.622160
-28.956244 301.000000 -34.622160
-28.956244 300.000000 -34.622160
-32.950208 299.000000 -39.397631
-32.950208 298.000000 -39.397631
-30.953226 297.000000 -37.009896
-28.956244 296.000000 -34.622160
-337.490014 295.000000 -403.527248
-28.956244 295.000000 -34.622160
-30.953226 294.000000 -37.009896
-30.953226 293.000000 -37.009896
-30.953226 292.000000 -37.009896
-30.953226 291.000000 -37.009896
-30.953226 290.000000 -37.009896
-30.953226 289.000000 -37.009896
-30.953226 288.000000 -37.009896
-30.953226 287.000000 -37.009896
-30.953226 286.000000 -37.009896
-30.953226 285.000000 -37.009896
-30.953226 284.000000 -37.009896
-30.953226 283.000000 -37.009896
-30.953226 282.000000 -37.009896
-30.953226 281.000000 -37.009896
-30.953226 280.000000 -37.009896
-30.953226 279.000000 -37.009896
-30.953226 278.000000 -37.009896
-30.953226 277.000000 -37.009896
-30.953226 276.000000 -37.009896
-32.950208 275.000000 -39.397631
-32.950208 274.000000 -39.397631
-270.591106 273.000000 -323.538119
-32.950208 273.000000 -39.397631
-32.950208 272.000000 -39.397631
-32.950208 271.000000 -39.397631
