ply
format ascii 1.0
comment made using 3dScanner
comment FileName: Output.ply
comment DateCreated: Thu 27 Jul 2017 03:15:03 PM IST
element vertex 1478
property double x
property double y
property double z
element face 0
property list int int vertex_indices
end_header
74.411573 61.000000 -53.804829
122.337670 44.000000 -88.458787
15.002146 414.000000 -45.855972
15.002146 413.000000 -45.855972
15.002146 412.000000 -45.855972
15.002146 411.000000 -45.855972
-55.653121 393.000000 170.110865
-60.008583 391.000000 183.423889
-60.008583 390.000000 183.423889
15.002146 360.000000 -45.855972
15.002146 359.000000 -45.855972
15.002146 358.000000 -45.855972
15.486086 357.000000 -47.335197
15.486086 356.000000 -47.335197
15.002146 350.000000 -45.855972
15.002146 349.000000 -45.855972
15.002146 348.000000 -45.855972
14.518206 337.000000 -44.376747
15.002146 336.000000 -45.855972
15.002146 335.000000 -45.855972
160.184201 329.000000 -489.623447
15.970026 320.000000 -48.814422
15.970026 319.000000 -48.814422
15.002146 318.000000 -45.855972
15.002146 317.000000 -45.855972
15.002146 316.000000 -45.855972
15.002146 315.000000 -45.855972
15.002146 314.000000 -45.855972
15.002146 313.000000 -45.855972
15.002146 312.000000 -45.855972
14.034265 291.000000 -42.897523
14.034265 290.000000 -42.897523
14.034265 289.000000 -42.897523
14.034265 288.000000 -42.897523
14.034265 287.000000 -42.897523
14.034265 286.000000 -42.897523
14.034265 235.000000 -42.897523
14.034265 234.000000 -42.897523
14.034265 233.000000 -42.897523
-116.145645 211.000000 355.013980
-116.145645 210.000000 355.013980
-129.212030 205.000000 394.953052
-132.115671 200.000000 403.828402
-31.940052 195.000000 97.628844
167.443304 190.000000 -511.811821
24.197009 177.000000 -73.961246
24.680949 176.000000 -75.440471
24.680949 175.000000 -75.440471
25.648830 174.000000 -78.398920
25.648830 173.000000 -78.398920
25.648830 172.000000 -78.398920
25.648830 171.000000 -78.398920
25.648830 170.000000 -78.398920
25.648830 169.000000 -78.398920
25.648830 168.000000 -78.398920
25.648830 167.000000 -78.398920
25.648830 166.000000 -78.398920
25.648830 165.000000 -78.398920
26.616710 164.000000 -81.357370
25.648830 164.000000 -78.398920
19.841548 164.000000 -60.648222
25.648830 163.000000 -78.398920
25.648830 162.000000 -78.398920
25.648830 161.000000 -78.398920
25.648830 160.000000 -78.398920
25.648830 159.000000 -78.398920
25.164890 158.000000 -76.919696
120.985046 157.000000 -369.806229
25.164890 157.000000 -76.919696
25.648830 156.000000 -78.398920
25.648830 155.000000 -78.398920
26.132770 154.000000 -79.878145
26.616710 153.000000 -81.357370
25.648830 152.000000 -78.398920
25.648830 151.000000 -78.398920
26.616710 150.000000 -81.357370
26.616710 149.000000 -81.357370
19.357607 149.000000 -59.168997
26.616710 148.000000 -81.357370
27.584591 147.000000 -84.315820
25.648830 146.000000 -78.398920
25.648830 145.000000 -78.398920
17.905787 145.000000 -54.731322
26.616710 144.000000 -81.357370
26.132770 143.000000 -79.878145
24.680949 142.000000 -75.440471
24.680949 141.000000 -75.440471
25.648830 140.000000 -78.398920
20.325488 140.000000 -62.127446
25.648830 139.000000 -78.398920
20.325488 139.000000 -62.127446
25.648830 138.000000 -78.398920
25.648830 137.000000 -78.398920
25.648830 136.000000 -78.398920
25.648830 135.000000 -78.398920
25.648830 134.000000 -78.398920
24.680949 133.000000 -75.440471
24.680949 132.000000 -75.440471
24.680949 131.000000 -75.440471
24.680949 130.000000 -75.440471
24.680949 129.000000 -75.440471
24.680949 128.000000 -75.440471
24.680949 127.000000 -75.440471
24.680949 126.000000 -75.440471
24.680949 125.000000 -75.440471
25.648830 124.000000 -78.398920
24.680949 124.000000 -75.440471
25.648830 123.000000 -78.398920
24.680949 122.000000 -75.440471
78.398310 121.000000 -239.634436
24.680949 121.000000 -75.440471
24.680949 120.000000 -75.440471
24.680949 119.000000 -75.440471
24.680949 118.000000 -75.440471
24.680949 117.000000 -75.440471
24.680949 116.000000 -75.440471
24.680949 115.000000 -75.440471
24.680949 114.000000 -75.440471
24.680949 113.000000 -75.440471
24.680949 112.000000 -75.440471
24.680949 111.000000 -75.440471
24.680949 110.000000 -75.440471
24.680949 109.000000 -75.440471
24.680949 108.000000 -75.440471
23.713069 107.000000 -72.482021
23.713069 106.000000 -72.482021
23.713069 105.000000 -72.482021
23.713069 104.000000 -72.482021
23.713069 103.000000 -72.482021
23.713069 102.000000 -72.482021
23.713069 101.000000 -72.482021
23.713069 100.000000 -72.482021
23.713069 99.000000 -72.482021
23.713069 98.000000 -72.482021
23.713069 97.000000 -72.482021
23.713069 96.000000 -72.482021
22.745189 95.000000 -69.523571
22.745189 94.000000 -69.523571
22.745189 93.000000 -69.523571
23.713069 92.000000 -72.482021
23.713069 91.000000 -72.482021
23.713069 90.000000 -72.482021
23.713069 89.000000 -72.482021
23.713069 88.000000 -72.482021
23.713069 87.000000 -72.482021
22.745189 86.000000 -69.523571
22.745189 85.000000 -69.523571
22.745189 84.000000 -69.523571
22.745189 83.000000 -69.523571
22.745189 82.000000 -69.523571
22.745189 81.000000 -69.523571
22.745189 80.000000 -69.523571
22.745189 79.000000 -69.523571
22.745189 78.000000 -69.523571
22.745189 77.000000 -69.523571
22.745189 76.000000 -69.523571
22.745189 75.000000 -69.523571
22.745189 74.000000 -69.523571
22.745189 73.000000 -69.523571
22.745189 72.000000 -69.523571
22.745189 71.000000 -69.523571
22.745189 70.000000 -69.523571
22.745189 69.000000 -69.523571
22.745189 68.000000 -69.523571
22.745189 67.000000 -69.523571
22.745189 66.000000 -69.523571
22.745189 65.000000 -69.523571
22.745189 64.000000 -69.523571
22.745189 63.000000 -69.523571
21.777308 62.000000 -66.565121
20.809428 61.000000 -63.606671
-23.713069 56.000000 72.482021
-22.745189 55.000000 69.523571
20.809428 36.000000 -63.606671
21.293368 35.000000 -65.085896
21.777308 34.000000 -66.565121
21.777308 33.000000 -66.565121
20.809428 32.000000 -63.606671
20.809428 31.000000 -63.606671
21.293368 30.000000 -65.085896
20.809428 29.000000 -63.606671
56.442388 442.000000 174.763909
-14.349760 422.000000 -44.431502
-14.828085 421.000000 -45.912552
-14.828085 420.000000 -45.912552
-14.828085 419.000000 -45.912552
-14.828085 418.000000 -45.912552
-14.828085 417.000000 -45.912552
-15.784736 416.000000 -48.874653
-15.306410 415.000000 -47.393603
-14.828085 414.000000 -45.912552
-14.828085 413.000000 -45.912552
-14.349760 412.000000 -44.431502
-14.349760 411.000000 -44.431502
-14.828085 410.000000 -45.912552
-14.828085 409.000000 -45.912552
-14.828085 408.000000 -45.912552
-14.828085 407.000000 -45.912552
-14.828085 406.000000 -45.912552
-14.828085 405.000000 -45.912552
-14.828085 404.000000 -45.912552
-14.828085 403.000000 -45.912552
-15.784736 402.000000 -48.874653
-15.784736 401.000000 -48.874653
-14.828085 400.000000 -45.912552
-14.828085 396.000000 -45.912552
-15.784736 395.000000 -48.874653
-15.306410 394.000000 -47.393603
-15.306410 393.000000 -47.393603
-15.784736 392.000000 -48.874653
-15.306410 391.000000 -47.393603
-15.306410 390.000000 -47.393603
-14.828085 389.000000 -45.912552
-14.828085 388.000000 -45.912552
-14.828085 387.000000 -45.912552
-15.306410 386.000000 -47.393603
-14.828085 385.000000 -45.912552
-14.828085 384.000000 -45.912552
-14.828085 383.000000 -45.912552
-15.306410 382.000000 -47.393603
-15.306410 381.000000 -47.393603
-14.828085 380.000000 -45.912552
-14.828085 379.000000 -45.912552
-14.828085 378.000000 -45.912552
-14.828085 377.000000 -45.912552
-14.828085 376.000000 -45.912552
-15.306410 375.000000 -47.393603
-15.306410 374.000000 -47.393603
-15.784736 373.000000 -48.874653
-15.784736 372.000000 -48.874653
-15.784736 371.000000 -48.874653
-15.306410 370.000000 -47.393603
-14.828085 369.000000 -45.912552
-14.828085 368.000000 -45.912552
-14.828085 367.000000 -45.912552
-14.828085 366.000000 -45.912552
-14.828085 365.000000 -45.912552
-15.784736 364.000000 -48.874653
-15.784736 363.000000 -48.874653
-15.784736 362.000000 -48.874653
-15.784736 361.000000 -48.874653
-15.784736 360.000000 -48.874653
-15.784736 359.000000 -48.874653
-15.784736 358.000000 -48.874653
-15.306410 357.000000 -47.393603
-15.306410 356.000000 -47.393603
-15.306410 355.000000 -47.393603
-15.784736 354.000000 -48.874653
-15.784736 353.000000 -48.874653
-15.306410 352.000000 -47.393603
-15.306410 351.000000 -47.393603
-15.784736 350.000000 -48.874653
-14.828085 349.000000 -45.912552
-14.828085 348.000000 -45.912552
-14.828085 347.000000 -45.912552
-14.828085 331.000000 -45.912552
-14.828085 330.000000 -45.912552
-14.349760 323.000000 -44.431502
-14.828085 322.000000 -45.912552
-14.828085 321.000000 -45.912552
-14.828085 320.000000 -45.912552
-14.828085 319.000000 -45.912552
-14.828085 318.000000 -45.912552
-14.828085 317.000000 -45.912552
-14.828085 316.000000 -45.912552
-14.828085 311.000000 -45.912552
-14.828085 310.000000 -45.912552
-14.828085 309.000000 -45.912552
-14.828085 308.000000 -45.912552
-14.828085 307.000000 -45.912552
-14.349760 306.000000 -44.431502
-14.349760 305.000000 -44.431502
-14.828085 304.000000 -45.912552
-14.828085 303.000000 -45.912552
-15.306410 302.000000 -47.393603
-15.784736 301.000000 -48.874653
-15.784736 300.000000 -48.874653
-15.784736 299.000000 -48.874653
-15.306410 298.000000 -47.393603
-15.306410 297.000000 -47.393603
-15.784736 296.000000 -48.874653
-15.784736 295.000000 -48.874653
-15.784736 294.000000 -48.874653
-15.784736 293.000000 -48.874653
-15.784736 292.000000 -48.874653
-15.784736 291.000000 -48.874653
-15.784736 290.000000 -48.874653
-15.784736 289.000000 -48.874653
-15.306410 288.000000 -47.393603
-15.306410 287.000000 -47.393603
-15.306410 286.000000 -47.393603
-15.306410 285.000000 -47.393603
-15.784736 284.000000 -48.874653
-15.784736 283.000000 -48.874653
-15.784736 282.000000 -48.874653
-15.306410 281.000000 -47.393603
-14.828085 280.000000 -45.912552
-14.828085 279.000000 -45.912552
-15.306410 278.000000 -47.393603
-15.784736 277.000000 -48.874653
-15.784736 276.000000 -48.874653
-15.784736 275.000000 -48.874653
-14.828085 274.000000 -45.912552
-14.828085 273.000000 -45.912552
-14.828085 272.000000 -45.912552
-14.828085 271.000000 -45.912552
-14.828085 270.000000 -45.912552
-13.871434 269.000000 -42.950452
-13.871434 264.000000 -42.950452
-13.871434 263.000000 -42.950452
-14.828085 262.000000 -45.912552
-14.349760 261.000000 -44.431502
-14.828085 258.000000 -45.912552
-14.828085 257.000000 -45.912552
-14.349760 249.000000 -44.431502
-124.842910 247.000000 -386.554071
-13.393109 232.000000 -41.469402
-13.393109 231.000000 -41.469402
-13.393109 230.000000 -41.469402
-14.828085 217.000000 -45.912552
-14.349760 216.000000 -44.431502
-14.349760 215.000000 -44.431502
-13.871434 214.000000 -42.950452
-3.826603 206.000000 -11.848401
-3.826603 205.000000 -11.848401
-4.304928 204.000000 -13.329451
-2.869952 204.000000 -8.886300
19.611338 195.000000 60.723053
-24.394592 178.000000 -75.533554
-25.351242 177.000000 -78.495654
-25.351242 176.000000 -78.495654
-25.351242 175.000000 -78.495654
-26.307893 174.000000 -81.457754
-25.351242 174.000000 -78.495654
-26.307893 173.000000 -81.457754
-26.307893 172.000000 -81.457754
-26.307893 171.000000 -81.457754
-26.786218 170.000000 -82.938804
-26.307893 169.000000 -81.457754
-26.307893 168.000000 -81.457754
-26.307893 167.000000 -81.457754
-20.089664 167.000000 -62.204103
-26.307893 166.000000 -81.457754
-26.307893 165.000000 -81.457754
-26.307893 164.000000 -81.457754
-26.307893 163.000000 -81.457754
-26.307893 162.000000 -81.457754
-26.786218 161.000000 -82.938804
-27.264544 160.000000 -84.419854
-26.307893 159.000000 -81.457754
-26.307893 158.000000 -81.457754
-26.307893 157.000000 -81.457754
-27.264544 156.000000 -84.419854
-26.307893 156.000000 -81.457754
-26.307893 155.000000 -81.457754
-26.307893 154.000000 -81.457754
-25.351242 154.000000 -78.495654
-26.307893 153.000000 -81.457754
-25.351242 153.000000 -78.495654
-26.307893 152.000000 -81.457754
-25.351242 152.000000 -78.495654
-26.307893 151.000000 -81.457754
-25.351242 151.000000 -78.495654
-20.089664 151.000000 -62.204103
-26.307893 150.000000 -81.457754
-25.351242 150.000000 -78.495654
-18.654688 150.000000 -57.760953
-26.307893 149.000000 -81.457754
-18.654688 149.000000 -57.760953
-26.307893 148.000000 -81.457754
-25.351242 148.000000 -78.495654
-18.654688 148.000000 -57.760953
-17.219712 148.000000 -53.317803
-26.307893 147.000000 -81.457754
-25.351242 147.000000 -78.495654
-20.089664 147.000000 -62.204103
-26.307893 146.000000 -81.457754
-25.351242 146.000000 -78.495654
-26.307893 145.000000 -81.457754
-26.307893 144.000000 -81.457754
-28.221194 143.000000 -87.381955
-27.264544 142.000000 -84.419854
-26.786218 141.000000 -82.938804
-26.307893 140.000000 -81.457754
-26.307893 139.000000 -81.457754
-26.307893 138.000000 -81.457754
-26.307893 137.000000 -81.457754
-26.307893 136.000000 -81.457754
-20.089664 136.000000 -62.204103
-26.307893 135.000000 -81.457754
-25.351242 135.000000 -78.495654
-20.089664 135.000000 -62.204103
-24.872917 134.000000 -77.014604
-24.872917 133.000000 -77.014604
-25.351242 132.000000 -78.495654
-25.351242 131.000000 -78.495654
-25.351242 130.000000 -78.495654
-20.089664 130.000000 -62.204103
-25.351242 129.000000 -78.495654
-20.089664 129.000000 -62.204103
-25.351242 128.000000 -78.495654
-17.219712 128.000000 -53.317803
-25.351242 127.000000 -78.495654
-17.219712 127.000000 -53.317803
-25.829568 126.000000 -79.976704
-25.351242 125.000000 -78.495654
-25.351242 124.000000 -78.495654
-25.351242 123.000000 -78.495654
-25.351242 122.000000 -78.495654
-25.351242 121.000000 -78.495654
-25.351242 120.000000 -78.495654
-25.351242 119.000000 -78.495654
-24.394592 118.000000 -75.533554
-24.394592 117.000000 -75.533554
-24.394592 116.000000 -75.533554
-24.394592 115.000000 -75.533554
-24.394592 114.000000 -75.533554
-156.890707 113.000000 -485.784426
-25.351242 113.000000 -78.495654
-24.394592 112.000000 -75.533554
-24.394592 111.000000 -75.533554
-24.872917 110.000000 -77.014604
-24.394592 109.000000 -75.533554
-24.394592 108.000000 -75.533554
-24.394592 107.000000 -75.533554
-24.394592 106.000000 -75.533554
-24.394592 105.000000 -75.533554
-23.916266 104.000000 -74.052504
-23.916266 103.000000 -74.052504
-24.394592 102.000000 -75.533554
-24.394592 101.000000 -75.533554
-24.394592 100.000000 -75.533554
-24.394592 99.000000 -75.533554
-23.437941 98.000000 -72.571454
-23.437941 97.000000 -72.571454
-23.437941 96.000000 -72.571454
-23.916266 95.000000 -74.052504
-23.437941 94.000000 -72.571454
-23.437941 93.000000 -72.571454
-24.394592 92.000000 -75.533554
-24.394592 91.000000 -75.533554
-23.437941 90.000000 -72.571454
-23.437941 89.000000 -72.571454
-23.437941 88.000000 -72.571454
-24.394592 87.000000 -75.533554
-23.437941 87.000000 -72.571454
-24.394592 86.000000 -75.533554
-23.437941 86.000000 -72.571454
-23.437941 85.000000 -72.571454
-23.437941 84.000000 -72.571454
-23.437941 83.000000 -72.571454
-23.437941 82.000000 -72.571454
-23.437941 81.000000 -72.571454
-23.437941 80.000000 -72.571454
-23.437941 79.000000 -72.571454
-23.437941 78.000000 -72.571454
-23.916266 77.000000 -74.052504
-23.437941 76.000000 -72.571454
-23.437941 75.000000 -72.571454
-23.437941 74.000000 -72.571454
-23.437941 73.000000 -72.571454
-23.437941 72.000000 -72.571454
-23.437941 71.000000 -72.571454
-23.437941 70.000000 -72.571454
-23.437941 69.000000 -72.571454
-23.437941 68.000000 -72.571454
-23.437941 67.000000 -72.571454
-23.437941 66.000000 -72.571454
-23.437941 65.000000 -72.571454
-23.437941 64.000000 -72.571454
-23.437941 63.000000 -72.571454
-23.437941 62.000000 -72.571454
-22.959616 61.000000 -71.090404
-22.002965 60.000000 -68.128304
-18.176362 42.000000 -56.279903
-36.474593 421.000000 -26.584998
-36.474593 420.000000 -26.584998
-36.474593 419.000000 -26.584998
-36.474593 418.000000 -26.584998
-36.474593 417.000000 -26.584998
-36.474593 416.000000 -26.584998
-36.474593 415.000000 -26.584998
-36.474593 414.000000 -26.584998
-37.732338 413.000000 -27.501722
-37.732338 412.000000 -27.501722
-36.474593 411.000000 -26.584998
-36.474593 410.000000 -26.584998
-36.474593 409.000000 -26.584998
-36.474593 408.000000 -26.584998
-36.474593 407.000000 -26.584998
-36.474593 406.000000 -26.584998
-36.474593 405.000000 -26.584998
-37.732338 404.000000 -27.501722
-37.732338 403.000000 -27.501722
-36.474593 402.000000 -26.584998
-36.474593 401.000000 -26.584998
-36.474593 400.000000 -26.584998
-36.474593 399.000000 -26.584998
-36.474593 398.000000 -26.584998
-37.732338 397.000000 -27.501722
-38.990082 396.000000 -28.418446
-37.732338 395.000000 -27.501722
-36.474593 394.000000 -26.584998
-36.474593 393.000000 -26.584998
-36.474593 392.000000 -26.584998
-37.732338 391.000000 -27.501722
-37.732338 390.000000 -27.501722
-36.474593 389.000000 -26.584998
-36.474593 388.000000 -26.584998
-36.474593 387.000000 -26.584998
-36.474593 386.000000 -26.584998
-36.474593 385.000000 -26.584998
-36.474593 384.000000 -26.584998
-36.474593 383.000000 -26.584998
-36.474593 382.000000 -26.584998
-36.474593 381.000000 -26.584998
-36.474593 380.000000 -26.584998
-36.474593 379.000000 -26.584998
-36.474593 378.000000 -26.584998
-36.474593 377.000000 -26.584998
-36.474593 376.000000 -26.584998
-36.474593 375.000000 -26.584998
-36.474593 374.000000 -26.584998
-36.474593 373.000000 -26.584998
-35.216848 372.000000 -25.668274
-35.216848 371.000000 -25.668274
-35.216848 370.000000 -25.668274
-36.474593 369.000000 -26.584998
-36.474593 368.000000 -26.584998
-36.474593 367.000000 -26.584998
-36.474593 366.000000 -26.584998
-36.474593 365.000000 -26.584998
-36.474593 364.000000 -26.584998
-37.732338 363.000000 -27.501722
-37.732338 362.000000 -27.501722
-37.732338 361.000000 -27.501722
-38.990082 360.000000 -28.418446
-36.474593 359.000000 -26.584998
-36.474593 358.000000 -26.584998
-36.474593 357.000000 -26.584998
-36.474593 356.000000 -26.584998
-38.990082 355.000000 -28.418446
-38.990082 354.000000 -28.418446
-38.990082 353.000000 -28.418446
-38.990082 352.000000 -28.418446
-38.990082 351.000000 -28.418446
-38.990082 350.000000 -28.418446
-38.990082 349.000000 -28.418446
-38.990082 348.000000 -28.418446
-37.732338 347.000000 -27.501722
-36.474593 346.000000 -26.584998
-36.474593 345.000000 -26.584998
-84.268887 344.000000 -61.420512
-38.990082 344.000000 -28.418446
-38.990082 343.000000 -28.418446
-37.732338 342.000000 -27.501722
-36.474593 341.000000 -26.584998
-36.474593 340.000000 -26.584998
-36.474593 339.000000 -26.584998
-37.732338 338.000000 -27.501722
-38.990082 337.000000 -28.418446
-38.990082 336.000000 -28.418446
-38.990082 335.000000 -28.418446
-37.732338 334.000000 -27.501722
-36.474593 333.000000 -26.584998
-36.474593 332.000000 -26.584998
-36.474593 331.000000 -26.584998
-36.474593 330.000000 -26.584998
-37.732338 329.000000 -27.501722
-38.990082 328.000000 -28.418446
-37.732338 327.000000 -27.501722
-36.474593 326.000000 -26.584998
-36.474593 325.000000 -26.584998
-36.474593 324.000000 -26.584998
-36.474593 323.000000 -26.584998
-37.732338 322.000000 -27.501722
-37.732338 321.000000 -27.501722
-37.732338 320.000000 -27.501722
-37.732338 319.000000 -27.501722
-36.474593 318.000000 -26.584998
-36.474593 317.000000 -26.584998
-36.474593 316.000000 -26.584998
-36.474593 315.000000 -26.584998
-36.474593 314.000000 -26.584998
-36.474593 313.000000 -26.584998
-38.990082 312.000000 -28.418446
-38.990082 311.000000 -28.418446
-38.990082 310.000000 -28.418446
-38.990082 309.000000 -28.418446
-36.474593 308.000000 -26.584998
-36.474593 307.000000 -26.584998
-36.474593 306.000000 -26.584998
-36.474593 305.000000 -26.584998
-36.474593 304.000000 -26.584998
-36.474593 303.000000 -26.584998
-36.474593 302.000000 -26.584998
-36.474593 301.000000 -26.584998
-36.474593 300.000000 -26.584998
-36.474593 299.000000 -26.584998
-36.474593 298.000000 -26.584998
-36.474593 297.000000 -26.584998
-36.474593 296.000000 -26.584998
-36.474593 295.000000 -26.584998
-36.474593 294.000000 -26.584998
-36.474593 293.000000 -26.584998
-36.474593 292.000000 -26.584998
-36.474593 291.000000 -26.584998
-36.474593 290.000000 -26.584998
-36.474593 289.000000 -26.584998
-36.474593 288.000000 -26.584998
-36.474593 287.000000 -26.584998
-36.474593 286.000000 -26.584998
-36.474593 285.000000 -26.584998
-36.474593 284.000000 -26.584998
-36.474593 283.000000 -26.584998
-36.474593 282.000000 -26.584998
-36.474593 281.000000 -26.584998
-36.474593 280.000000 -26.584998
-36.474593 279.000000 -26.584998
-36.474593 278.000000 -26.584998
-36.474593 277.000000 -26.584998
-37.732338 276.000000 -27.501722
-38.990082 275.000000 -28.418446
-38.990082 274.000000 -28.418446
-37.732338 273.000000 -27.501722
-36.474593 272.000000 -26.584998
-36.474593 271.000000 -26.584998
-36.474593 270.000000 -26.584998
-37.732338 269.000000 -27.501722
-37.732338 268.000000 -27.501722
-36.474593 267.000000 -26.584998
-36.474593 266.000000 -26.584998
-36.474593 265.000000 -26.584998
-36.474593 262.000000 -26.584998
-36.474593 256.000000 -26.584998
-36.474593 255.000000 -26.584998
-36.474593 254.000000 -26.584998
-35.216848 253.000000 -25.668274
-35.216848 250.000000 -25.668274
-36.474593 249.000000 -26.584998
-36.474593 248.000000 -26.584998
-36.474593 247.000000 -26.584998
-36.474593 246.000000 -26.584998
-36.474593 245.000000 -26.584998
-32.701359 244.000000 -23.834826
-32.701359 243.000000 -23.834826
-33.959104 242.000000 -24.751550
-33.959104 241.000000 -24.751550
-33.959104 240.000000 -24.751550
-8.804212 185.000000 -6.417068
-61.629485 180.000000 -44.919479
-64.144974 179.000000 -46.752927
-66.660463 178.000000 -48.586375
-69.175952 177.000000 -50.419823
-66.660463 177.000000 -48.586375
-66.660463 176.000000 -48.586375
-66.660463 175.000000 -48.586375
-66.660463 174.000000 -48.586375
-69.175952 173.000000 -50.419823
-72.949186 172.000000 -53.169995
-69.175952 172.000000 -50.419823
-52.825273 172.000000 -38.502411
-72.949186 171.000000 -53.169995
-70.433697 171.000000 -51.336547
-69.175952 170.000000 -50.419823
-52.825273 170.000000 -38.502411
-69.175952 169.000000 -50.419823
-52.825273 169.000000 -38.502411
-67.918208 168.000000 -49.503099
-52.825273 168.000000 -38.502411
-66.660463 167.000000 -48.586375
-66.660463 166.000000 -48.586375
-66.660463 165.000000 -48.586375
-66.660463 164.000000 -48.586375
-52.825273 164.000000 -38.502411
-66.660463 163.000000 -48.586375
-52.825273 163.000000 -38.502411
-69.175952 162.000000 -50.419823
-71.691442 161.000000 -52.253271
-71.691442 160.000000 -52.253271
-69.175952 159.000000 -50.419823
-66.660463 158.000000 -48.586375
-66.660463 157.000000 -48.586375
-66.660463 156.000000 -48.586375
-71.691442 155.000000 -52.253271
-66.660463 155.000000 -48.586375
-69.175952 154.000000 -50.419823
-66.660463 154.000000 -48.586375
-69.175952 153.000000 -50.419823
-69.175952 152.000000 -50.419823
-69.175952 151.000000 -50.419823
-69.175952 150.000000 -50.419823
-69.175952 149.000000 -50.419823
-67.918208 148.000000 -49.503099
-66.660463 147.000000 -48.586375
-66.660463 146.000000 -48.586375
-66.660463 145.000000 -48.586375
-66.660463 144.000000 -48.586375
-66.660463 143.000000 -48.586375
-65.402719 142.000000 -47.669651
-65.402719 141.000000 -47.669651
-64.144974 140.000000 -46.752927
-64.144974 139.000000 -46.752927
-66.660463 138.000000 -48.586375
-66.660463 137.000000 -48.586375
-66.660463 136.000000 -48.586375
-65.402719 135.000000 -47.669651
-64.144974 134.000000 -46.752927
-64.144974 133.000000 -46.752927
-66.660463 132.000000 -48.586375
-64.144974 132.000000 -46.752927
-52.825273 132.000000 -38.502411
-66.660463 131.000000 -48.586375
-52.825273 131.000000 -38.502411
-69.175952 130.000000 -50.419823
-69.175952 129.000000 -50.419823
-67.918208 128.000000 -49.503099
-50.309784 128.000000 -36.668962
-66.660463 127.000000 -48.586375
-50.309784 127.000000 -36.668962
-66.660463 126.000000 -48.586375
-64.144974 125.000000 -46.752927
-64.144974 124.000000 -46.752927
-64.144974 123.000000 -46.752927
-64.144974 122.000000 -46.752927
-66.660463 121.000000 -48.586375
-50.309784 121.000000 -36.668962
-66.660463 120.000000 -48.586375
-50.309784 120.000000 -36.668962
-66.660463 119.000000 -48.586375
-50.309784 119.000000 -36.668962
-66.660463 118.000000 -48.586375
-69.175952 117.000000 -50.419823
-69.175952 116.000000 -50.419823
-66.660463 116.000000 -48.586375
-69.175952 115.000000 -50.419823
-66.660463 115.000000 -48.586375
-69.175952 114.000000 -50.419823
-66.660463 114.000000 -48.586375
-69.175952 113.000000 -50.419823
-66.660463 113.000000 -48.586375
-64.144974 112.000000 -46.752927
-50.309784 112.000000 -36.668962
-64.144974 111.000000 -46.752927
-64.144974 110.000000 -46.752927
-66.660463 109.000000 -48.586375
-67.918208 108.000000 -49.503099
-66.660463 107.000000 -48.586375
-64.144974 106.000000 -46.752927
-64.144974 105.000000 -46.752927
-64.144974 104.000000 -46.752927
-64.144974 103.000000 -46.752927
-62.887229 102.000000 -45.836203
-62.887229 101.000000 -45.836203
-64.144974 100.000000 -46.752927
-64.144974 99.000000 -46.752927
-64.144974 98.000000 -46.752927
-64.144974 97.000000 -46.752927
-64.144974 96.000000 -46.752927
-62.887229 95.000000 -45.836203
-61.629485 94.000000 -44.919479
-61.629485 93.000000 -44.919479
-61.629485 92.000000 -44.919479
-61.629485 91.000000 -44.919479
-50.309784 91.000000 -36.668962
-64.144974 90.000000 -46.752927
-64.144974 89.000000 -46.752927
-64.144974 88.000000 -46.752927
-62.887229 87.000000 -45.836203
-61.629485 86.000000 -44.919479
-61.629485 85.000000 -44.919479
-64.144974 84.000000 -46.752927
-64.144974 83.000000 -46.752927
-62.887229 82.000000 -45.836203
-61.629485 81.000000 -44.919479
-61.629485 80.000000 -44.919479
-61.629485 79.000000 -44.919479
-61.629485 78.000000 -44.919479
-61.629485 77.000000 -44.919479
-61.629485 76.000000 -44.919479
-61.629485 75.000000 -44.919479
-61.629485 74.000000 -44.919479
-61.629485 73.000000 -44.919479
-61.629485 72.000000 -44.919479
-61.629485 71.000000 -44.919479
-61.629485 70.000000 -44.919479
-61.629485 69.000000 -44.919479
-61.629485 68.000000 -44.919479
-64.144974 67.000000 -46.752927
-50.309784 67.000000 -36.668962
-64.144974 66.000000 -46.752927
-50.309784 66.000000 -36.668962
-61.629485 65.000000 -44.919479
-61.629485 64.000000 -44.919479
-50.309784 64.000000 -36.668962
-61.629485 63.000000 -44.919479
-61.629485 62.000000 -44.919479
-61.629485 61.000000 -44.919479
320.724870 38.000000 233.764635
-212.558836 23.000000 -154.926366
-38.909354 427.000000 -0.049200
-38.909354 426.000000 -0.049200
-38.909354 425.000000 -0.049200
-38.909354 414.000000 -0.049200
-38.909354 413.000000 -0.049200
-38.909354 410.000000 -0.049200
-42.022103 409.000000 -0.053137
-42.022103 408.000000 -0.053137
-42.022103 407.000000 -0.053137
-38.909354 406.000000 -0.049200
-38.909354 405.000000 -0.049200
-42.022103 404.000000 -0.053137
-42.022103 403.000000 -0.053137
-42.022103 402.000000 -0.053137
-42.022103 401.000000 -0.053137
-42.022103 400.000000 -0.053137
-40.465729 399.000000 -0.051169
-38.909354 398.000000 -0.049200
-38.909354 397.000000 -0.049200
-38.909354 396.000000 -0.049200
-38.909354 395.000000 -0.049200
-38.909354 394.000000 -0.049200
-38.909354 393.000000 -0.049200
-38.909354 392.000000 -0.049200
-38.909354 391.000000 -0.049200
-42.022103 390.000000 -0.053137
-40.465729 389.000000 -0.051169
-38.909354 370.000000 -0.049200
-38.909354 369.000000 -0.049200
-42.022103 368.000000 -0.053137
-42.022103 367.000000 -0.053137
-40.465729 366.000000 -0.051169
-38.909354 365.000000 -0.049200
-38.909354 360.000000 -0.049200
-38.909354 359.000000 -0.049200
-38.909354 358.000000 -0.049200
-38.909354 357.000000 -0.049200
-38.909354 356.000000 -0.049200
-38.909354 355.000000 -0.049200
-38.909354 354.000000 -0.049200
-38.909354 353.000000 -0.049200
-38.909354 352.000000 -0.049200
-38.909354 351.000000 -0.049200
-38.909354 350.000000 -0.049200
-38.909354 349.000000 -0.049200
-38.909354 348.000000 -0.049200
-38.909354 347.000000 -0.049200
-38.909354 343.000000 -0.049200
-40.465729 342.000000 -0.051169
-38.909354 341.000000 -0.049200
-37.352980 340.000000 -0.047232
-40.465729 337.000000 -0.051169
-42.022103 336.000000 -0.053137
-38.909354 335.000000 -0.049200
-38.909354 334.000000 -0.049200
-38.909354 333.000000 -0.049200
-38.909354 332.000000 -0.049200
-38.909354 331.000000 -0.049200
-40.465729 330.000000 -0.051169
-38.909354 329.000000 -0.049200
-38.909354 328.000000 -0.049200
-38.909354 327.000000 -0.049200
-38.909354 326.000000 -0.049200
-38.909354 325.000000 -0.049200
-38.909354 324.000000 -0.049200
-42.022103 323.000000 -0.053137
-42.022103 322.000000 -0.053137
-42.022103 321.000000 -0.053137
-42.022103 320.000000 -0.053137
-42.022103 319.000000 -0.053137
-42.022103 318.000000 -0.053137
-42.022103 317.000000 -0.053137
-42.022103 316.000000 -0.053137
-42.022103 315.000000 -0.053137
-42.022103 314.000000 -0.053137
-42.022103 313.000000 -0.053137
-42.022103 312.000000 -0.053137
-42.022103 311.000000 -0.053137
-40.465729 310.000000 -0.051169
-38.909354 309.000000 -0.049200
-38.909354 308.000000 -0.049200
-38.909354 307.000000 -0.049200
-40.465729 306.000000 -0.051169
-42.022103 305.000000 -0.053137
-40.465729 304.000000 -0.051169
-40.465729 303.000000 -0.051169
-42.022103 302.000000 -0.053137
-42.022103 301.000000 -0.053137
-42.022103 300.000000 -0.053137
-42.022103 299.000000 -0.053137
-42.022103 298.000000 -0.053137
-42.022103 297.000000 -0.053137
-42.022103 296.000000 -0.053137
-42.022103 295.000000 -0.053137
-42.022103 294.000000 -0.053137
-42.022103 293.000000 -0.053137
-42.022103 292.000000 -0.053137
-42.022103 291.000000 -0.053137
-42.022103 290.000000 -0.053137
-42.022103 289.000000 -0.053137
-42.022103 288.000000 -0.053137
-42.022103 287.000000 -0.053137
-42.022103 286.000000 -0.053137
-42.022103 285.000000 -0.053137
-42.022103 284.000000 -0.053137
-42.022103 283.000000 -0.053137
-42.022103 282.000000 -0.053137
-42.022103 281.000000 -0.053137
-42.022103 280.000000 -0.053137
-42.022103 279.000000 -0.053137
-42.022103 278.000000 -0.053137
-42.022103 277.000000 -0.053137
-42.022103 274.000000 -0.053137
-42.022103 273.000000 -0.053137
164.975663 273.000000 0.208610
-42.022103 272.000000 -0.053137
-42.022103 271.000000 -0.053137
-42.022103 270.000000 -0.053137
-42.022103 269.000000 -0.053137
-42.022103 268.000000 -0.053137
-40.465729 267.000000 -0.051169
-38.909354 266.000000 -0.049200
-38.909354 265.000000 -0.049200
-40.465729 264.000000 -0.051169
-38.909354 263.000000 -0.049200
-37.352980 260.000000 -0.047232
-38.909354 259.000000 -0.049200
-38.909354 258.000000 -0.049200
-38.909354 257.000000 -0.049200
-42.022103 256.000000 -0.053137
-42.022103 255.000000 -0.053137
-42.022103 254.000000 -0.053137
-42.022103 253.000000 -0.053137
-42.022103 252.000000 -0.053137
-42.022103 251.000000 -0.053137
-42.022103 250.000000 -0.053137
-42.022103 249.000000 -0.053137
-42.022103 248.000000 -0.053137
-42.022103 247.000000 -0.053137
-42.022103 246.000000 -0.053137
-42.022103 245.000000 -0.053137
-42.022103 244.000000 -0.053137
-42.022103 243.000000 -0.053137
-42.022103 242.000000 -0.053137
-42.022103 241.000000 -0.053137
-38.909354 240.000000 -0.049200
273.921855 229.000000 0.346371
-76.262335 180.000000 -0.096433
-79.375083 179.000000 -0.100369
-79.375083 178.000000 -0.100369
-82.487831 177.000000 -0.104305
-79.375083 177.000000 -0.100369
-79.375083 176.000000 -0.100369
-79.375083 175.000000 -0.100369
-62.254967 175.000000 -0.078721
-88.713328 174.000000 -0.112177
-79.375083 174.000000 -0.100369
-88.713328 173.000000 -0.112177
-91.826076 172.000000 -0.116113
-85.600580 172.000000 -0.108241
-91.826076 171.000000 -0.116113
-85.600580 171.000000 -0.108241
-82.487831 171.000000 -0.104305
-88.713328 170.000000 -0.112177
-82.487831 170.000000 -0.104305
-60.698593 170.000000 -0.076753
-85.600580 169.000000 -0.108241
-60.698593 169.000000 -0.076753
-85.600580 168.000000 -0.108241
-60.698593 168.000000 -0.076753
-85.600580 167.000000 -0.108241
-85.600580 166.000000 -0.108241
-85.600580 165.000000 -0.108241
-88.713328 164.000000 -0.112177
-87.156954 163.000000 -0.110209
-85.600580 162.000000 -0.108241
-82.487831 161.000000 -0.104305
-82.487831 160.000000 -0.104305
-82.487831 159.000000 -0.104305
-84.044206 158.000000 -0.106273
-84.044206 157.000000 -0.106273
-85.600580 156.000000 -0.108241
-85.600580 155.000000 -0.108241
-85.600580 154.000000 -0.108241
-63.811341 154.000000 -0.080689
-88.713328 153.000000 -0.112177
-63.811341 153.000000 -0.080689
-88.713328 152.000000 -0.112177
-88.713328 151.000000 -0.112177
-87.156954 150.000000 -0.110209
-85.600580 149.000000 -0.108241
-85.600580 148.000000 -0.108241
-85.600580 147.000000 -0.108241
-85.600580 146.000000 -0.108241
-85.600580 145.000000 -0.108241
-84.044206 144.000000 -0.106273
-79.375083 144.000000 -0.100369
-52.916722 144.000000 -0.066913
-84.044206 143.000000 -0.106273
-79.375083 143.000000 -0.100369
-85.600580 142.000000 -0.108241
-85.600580 141.000000 -0.108241
-85.600580 140.000000 -0.108241
-84.044206 139.000000 -0.106273
-84.044206 138.000000 -0.106273
-84.044206 137.000000 -0.106273
-82.487831 136.000000 -0.104305
-82.487831 135.000000 -0.104305
-56.029470 135.000000 -0.070849
-79.375083 134.000000 -0.100369
-59.142219 134.000000 -0.074785
-79.375083 133.000000 -0.100369
-59.142219 133.000000 -0.074785
-79.375083 132.000000 -0.100369
-79.375083 131.000000 -0.100369
-80.931457 130.000000 -0.102337
-82.487831 129.000000 -0.104305
-82.487831 128.000000 -0.104305
-82.487831 127.000000 -0.104305
-82.487831 126.000000 -0.104305
-82.487831 125.000000 -0.104305
-82.487831 124.000000 -0.104305
-59.142219 124.000000 -0.074785
-82.487831 123.000000 -0.104305
-59.142219 123.000000 -0.074785
-82.487831 122.000000 -0.104305
-79.375083 121.000000 -0.100369
-79.375083 120.000000 -0.100369
-79.375083 119.000000 -0.100369
-79.375083 118.000000 -0.100369
-79.375083 117.000000 -0.100369
-79.375083 116.000000 -0.100369
-79.375083 115.000000 -0.100369
-79.375083 114.000000 -0.100369
-79.375083 113.000000 -0.100369
-79.375083 112.000000 -0.100369
-59.142219 112.000000 -0.074785
-79.375083 111.000000 -0.100369
-79.375083 110.000000 -0.100369
-79.375083 109.000000 -0.100369
-79.375083 108.000000 -0.100369
-79.375083 107.000000 -0.100369
-79.375083 106.000000 -0.100369
-79.375083 105.000000 -0.100369
-79.375083 104.000000 -0.100369
-79.375083 103.000000 -0.100369
-76.262335 103.000000 -0.096433
-79.375083 102.000000 -0.100369
-76.262335 102.000000 -0.096433
-79.375083 101.000000 -0.100369
-76.262335 101.000000 -0.096433
-79.375083 100.000000 -0.100369
-76.262335 100.000000 -0.096433
-79.375083 99.000000 -0.100369
-76.262335 99.000000 -0.096433
-79.375083 98.000000 -0.100369
-76.262335 98.000000 -0.096433
-79.375083 97.000000 -0.100369
-79.375083 96.000000 -0.100369
-76.262335 96.000000 -0.096433
-76.262335 95.000000 -0.096433
-76.262335 94.000000 -0.096433
-79.375083 93.000000 -0.100369
-76.262335 93.000000 -0.096433
-79.375083 92.000000 -0.100369
-79.375083 91.000000 -0.100369
-79.375083 90.000000 -0.100369
-79.375083 89.000000 -0.100369
-79.375083 88.000000 -0.100369
-76.262335 87.000000 -0.096433
-74.705961 86.000000 -0.094465
-74.705961 85.000000 -0.094465
-79.375083 84.000000 -0.100369
-79.375083 83.000000 -0.100369
-79.375083 82.000000 -0.100369
-76.262335 82.000000 -0.096433
-76.262335 81.000000 -0.096433
-76.262335 80.000000 -0.096433
-76.262335 79.000000 -0.096433
-76.262335 78.000000 -0.096433
-76.262335 77.000000 -0.096433
-76.262335 76.000000 -0.096433
-76.262335 75.000000 -0.096433
-76.262335 74.000000 -0.096433
-59.142219 74.000000 -0.074785
-76.262335 73.000000 -0.096433
-76.262335 72.000000 -0.096433
-74.705961 71.000000 -0.094465
-73.149586 70.000000 -0.092497
-73.149586 69.000000 -0.092497
-73.149586 68.000000 -0.092497
-73.149586 67.000000 -0.092497
-73.149586 66.000000 -0.092497
-51.360348 66.000000 -0.064945
-73.149586 65.000000 -0.092497
-70.036838 64.000000 -0.088561
-70.036838 63.000000 -0.088561
-259.914488 11.000000 -0.328659
-258.358113 10.000000 -0.326691
-28.981356 425.000000 21.011427
-30.241415 424.000000 21.924968
-28.981356 423.000000 21.011427
-31.501473 417.000000 22.838508
-31.501473 416.000000 22.838508
-30.241415 415.000000 21.924968
-30.241415 412.000000 21.924968
-30.241415 411.000000 21.924968
-30.241415 410.000000 21.924968
-30.241415 409.000000 21.924968
-31.501473 401.000000 22.838508
-31.501473 400.000000 22.838508
-31.501473 399.000000 22.838508
-31.501473 398.000000 22.838508
-31.501473 397.000000 22.838508
-31.501473 396.000000 22.838508
-31.501473 395.000000 22.838508
-31.501473 394.000000 22.838508
-31.501473 393.000000 22.838508
-28.981356 390.000000 21.011427
-31.501473 389.000000 22.838508
-31.501473 388.000000 22.838508
-31.501473 387.000000 22.838508
-31.501473 386.000000 22.838508
-31.501473 385.000000 22.838508
-31.501473 384.000000 22.838508
-31.501473 383.000000 22.838508
-31.501473 382.000000 22.838508
-30.241415 381.000000 21.924968
-28.981356 377.000000 21.011427
-28.981356 376.000000 21.011427
-31.501473 375.000000 22.838508
-31.501473 374.000000 22.838508
-31.501473 373.000000 22.838508
-31.501473 372.000000 22.838508
-31.501473 371.000000 22.838508
-30.241415 370.000000 21.924968
-28.981356 369.000000 21.011427
-28.981356 368.000000 21.011427
-28.981356 367.000000 21.011427
-28.981356 366.000000 21.011427
-28.981356 365.000000 21.011427
-31.501473 364.000000 22.838508
-31.501473 363.000000 22.838508
-31.501473 362.000000 22.838508
-31.501473 361.000000 22.838508
-31.501473 360.000000 22.838508
-31.501473 359.000000 22.838508
-31.501473 358.000000 22.838508
-31.501473 357.000000 22.838508
-28.981356 356.000000 21.011427
-31.501473 350.000000 22.838508
-31.501473 349.000000 22.838508
-31.501473 348.000000 22.838508
-31.501473 347.000000 22.838508
-31.501473 346.000000 22.838508
-31.501473 345.000000 22.838508
-31.501473 344.000000 22.838508
-31.501473 343.000000 22.838508
-31.501473 342.000000 22.838508
-31.501473 341.000000 22.838508
-31.501473 340.000000 22.838508
-31.501473 339.000000 22.838508
-31.501473 338.000000 22.838508
-31.501473 337.000000 22.838508
-31.501473 336.000000 22.838508
-31.501473 335.000000 22.838508
-28.981356 334.000000 21.011427
-28.981356 333.000000 21.011427
-31.501473 332.000000 22.838508
-31.501473 331.000000 22.838508
-31.501473 330.000000 22.838508
-31.501473 329.000000 22.838508
-28.981356 328.000000 21.011427
-28.981356 327.000000 21.011427
-30.241415 326.000000 21.924968
-31.501473 325.000000 22.838508
-31.501473 324.000000 22.838508
-31.501473 323.000000 22.838508
-31.501473 322.000000 22.838508
-31.501473 321.000000 22.838508
-31.501473 320.000000 22.838508
-31.501473 319.000000 22.838508
-31.501473 318.000000 22.838508
-31.501473 317.000000 22.838508
-28.981356 316.000000 21.011427
-28.981356 315.000000 21.011427
-31.501473 314.000000 22.838508
-31.501473 313.000000 22.838508
-31.501473 312.000000 22.838508
-31.501473 311.000000 22.838508
-31.501473 310.000000 22.838508
-31.501473 309.000000 22.838508
-31.501473 308.000000 22.838508
-31.501473 307.000000 22.838508
-31.501473 306.000000 22.838508
-31.501473 305.000000 22.838508
-30.241415 304.000000 21.924968
-30.241415 303.000000 21.924968
-31.501473 302.000000 22.838508
-34.021591 301.000000 24.665589
-34.021591 300.000000 24.665589
-32.761532 299.000000 23.752048
-31.501473 298.000000 22.838508
-31.501473 297.000000 22.838508
-31.501473 296.000000 22.838508
-31.501473 295.000000 22.838508
-31.501473 294.000000 22.838508
-31.501473 293.000000 22.838508
-30.241415 290.000000 21.924968
-31.501473 289.000000 22.838508
-31.501473 288.000000 22.838508
-31.501473 287.000000 22.838508
-31.501473 286.000000 22.838508
-31.501473 285.000000 22.838508
-31.501473 284.000000 22.838508
-31.501473 283.000000 22.838508
-31.501473 282.000000 22.838508
-30.241415 281.000000 21.924968
-28.981356 280.000000 21.011427
-28.981356 279.000000 21.011427
-28.981356 278.000000 21.011427
-28.981356 277.000000 21.011427
-31.501473 276.000000 22.838508
-31.501473 275.000000 22.838508
-31.501473 274.000000 22.838508
-31.501473 273.000000 22.838508
-31.501473 272.000000 22.838508
-28.981356 271.000000 21.011427
-28.981356 270.000000 21.011427
-28.981356 269.000000 21.011427
-31.501473 268.000000 22.838508
-31.501473 267.000000 22.838508
-31.501473 266.000000 22.838508
-31.501473 265.000000 22.838508
-31.501473 264.000000 22.838508
-31.501473 263.000000 22.838508
-31.501473 262.000000 22.838508
-31.501473 261.000000 22.838508
-31.501473 260.000000 22.838508
-31.501473 259.000000 22.838508
-30.241415 258.000000 21.924968
-30.241415 257.000000 21.924968
-31.501473 256.000000 22.838508
-30.241415 255.000000 21.924968
-28.981356 254.000000 21.011427
-28.981356 253.000000 21.011427
-28.981356 252.000000 21.011427
-28.981356 251.000000 21.011427
-27.721297 250.000000 20.097887
-28.981356 246.000000 21.011427
-28.981356 245.000000 21.011427
-28.981356 244.000000 21.011427
-28.981356 243.000000 21.011427
-28.981356 242.000000 21.011427
-28.981356 241.000000 21.011427
-31.501473 240.000000 22.838508
-31.501473 239.000000 22.838508
-31.501473 238.000000 22.838508
-28.981356 237.000000 21.011427
-28.981356 234.000000 21.011427
-31.501473 233.000000 22.838508
-31.501473 232.000000 22.838508
-31.501473 231.000000 22.838508
-31.501473 230.000000 22.838508
-27.721297 229.000000 20.097887
-31.501473 217.000000 22.838508
-34.021591 216.000000 24.665589
309.974499 213.000000 -224.730919
312.494617 212.000000 -226.558000
160.027485 197.000000 -116.019621
160.027485 196.000000 -116.019621
-59.222770 182.000000 42.936395
-61.742888 181.000000 44.763476
-59.222770 181.000000 42.936395
-61.742888 180.000000 44.763476
-61.742888 179.000000 44.763476
-64.263006 178.000000 46.590556
287.293438 178.000000 -208.287194
-64.263006 177.000000 46.590556
-47.882240 177.000000 34.714532
-64.263006 176.000000 46.590556
-64.263006 175.000000 46.590556
-64.263006 174.000000 46.590556
-45.362122 174.000000 32.887452
-64.263006 173.000000 46.590556
-64.263006 172.000000 46.590556
-64.263006 171.000000 46.590556
-64.263006 170.000000 46.590556
-64.263006 169.000000 46.590556
-64.263006 168.000000 46.590556
-64.263006 167.000000 46.590556
-61.742888 166.000000 44.763476
-46.622181 166.000000 33.800992
-61.742888 165.000000 44.763476
-46.622181 165.000000 33.800992
-64.263006 164.000000 46.590556
-47.882240 164.000000 34.714532
-64.263006 163.000000 46.590556
-66.783124 162.000000 48.417637
-66.783124 161.000000 48.417637
-64.263006 160.000000 46.590556
-64.263006 159.000000 46.590556
-61.742888 159.000000 44.763476
-64.263006 158.000000 46.590556
-61.742888 158.000000 44.763476
-64.263006 157.000000 46.590556
-61.742888 157.000000 44.763476
-64.263006 156.000000 46.590556
-65.523065 155.000000 47.504097
-64.263006 154.000000 46.590556
-61.742888 154.000000 44.763476
-64.263006 153.000000 46.590556
-61.742888 153.000000 44.763476
-64.263006 152.000000 46.590556
-64.263006 151.000000 46.590556
-65.523065 150.000000 47.504097
-65.523065 149.000000 47.504097
-65.523065 148.000000 47.504097
-66.783124 147.000000 48.417637
-66.783124 146.000000 48.417637
-49.142299 146.000000 35.628073
-66.783124 145.000000 48.417637
-49.142299 145.000000 35.628073
192.789018 145.000000 -139.771669
-64.263006 144.000000 46.590556
-47.882240 144.000000 34.714532
-61.742888 143.000000 44.763476
-47.882240 143.000000 34.714532
-61.742888 142.000000 44.763476
-64.263006 141.000000 46.590556
-61.742888 141.000000 44.763476
-64.263006 140.000000 46.590556
-64.263006 139.000000 46.590556
-61.742888 138.000000 44.763476
-61.742888 137.000000 44.763476
-66.783124 136.000000 48.417637
-66.783124 135.000000 48.417637
-66.783124 134.000000 48.417637
-65.523065 133.000000 47.504097
-61.742888 132.000000 44.763476
-61.742888 131.000000 44.763476
-61.742888 130.000000 44.763476
-61.742888 129.000000 44.763476
-61.742888 128.000000 44.763476
-61.742888 127.000000 44.763476
-63.002947 126.000000 45.677016
-63.002947 125.000000 45.677016
-61.742888 124.000000 44.763476
-61.742888 123.000000 44.763476
-64.263006 122.000000 46.590556
-64.263006 121.000000 46.590556
-64.263006 120.000000 46.590556
-64.263006 119.000000 46.590556
-63.002947 118.000000 45.677016
-59.222770 117.000000 42.936395
-59.222770 116.000000 42.936395
-59.222770 115.000000 42.936395
-59.222770 114.000000 42.936395
-59.222770 113.000000 42.936395
-59.222770 112.000000 42.936395
-59.222770 111.000000 42.936395
-59.222770 110.000000 42.936395
-59.222770 109.000000 42.936395
-59.222770 108.000000 42.936395
-59.222770 107.000000 42.936395
-59.222770 106.000000 42.936395
-59.222770 105.000000 42.936395
-59.222770 104.000000 42.936395
-59.222770 103.000000 42.936395
-59.222770 102.000000 42.936395
-59.222770 101.000000 42.936395
-59.222770 100.000000 42.936395
-59.222770 99.000000 42.936395
-59.222770 98.000000 42.936395
-59.222770 97.000000 42.936395
-59.222770 96.000000 42.936395
-59.222770 95.000000 42.936395
-59.222770 94.000000 42.936395
-59.222770 93.000000 42.936395
-59.222770 92.000000 42.936395
-59.222770 91.000000 42.936395
-59.222770 90.000000 42.936395
-59.222770 89.000000 42.936395
-59.222770 88.000000 42.936395
-57.962711 87.000000 42.022855
-57.962711 86.000000 42.022855
-57.962711 85.000000 42.022855
-57.962711 84.000000 42.022855
-56.702652 83.000000 41.109315
-56.702652 82.000000 41.109315
-56.702652 81.000000 41.109315
-56.702652 80.000000 41.109315
-56.702652 79.000000 41.109315
-56.702652 78.000000 41.109315
-59.222770 77.000000 42.936395
-59.222770 76.000000 42.936395
-59.222770 75.000000 42.936395
-59.222770 74.000000 42.936395
-59.222770 73.000000 42.936395
-59.222770 72.000000 42.936395
-59.222770 71.000000 42.936395
-59.222770 70.000000 42.936395
-59.222770 69.000000 42.936395
-59.222770 68.000000 42.936395
-59.222770 67.000000 42.936395
-56.702652 67.000000 41.109315
-56.702652 66.000000 41.109315
-56.702652 65.000000 41.109315
-11.087595 425.000000 34.036220
-11.087595 424.000000 34.036220
-11.087595 423.000000 34.036220
-11.087595 408.000000 34.036220
-11.569664 407.000000 35.516056
-11.087595 406.000000 34.036220
-11.087595 405.000000 34.036220
-11.087595 404.000000 34.036220
-11.569664 399.000000 35.516056
-11.569664 398.000000 35.516056
-11.087595 382.000000 34.036220
-11.569664 381.000000 35.516056
-11.087595 380.000000 34.036220
-11.087595 375.000000 34.036220
-11.087595 374.000000 34.036220
-11.087595 373.000000 34.036220
-11.087595 372.000000 34.036220
-11.087595 371.000000 34.036220
-11.087595 370.000000 34.036220
-11.087595 369.000000 34.036220
-11.087595 368.000000 34.036220
-12.051733 367.000000 36.995892
-11.087595 366.000000 34.036220
-11.087595 362.000000 34.036220
-11.569664 361.000000 35.516056
-11.569664 360.000000 35.516056
-11.569664 359.000000 35.516056
-11.569664 358.000000 35.516056
-11.087595 357.000000 34.036220
-11.087595 356.000000 34.036220
-11.087595 349.000000 34.036220
-11.569664 348.000000 35.516056
-12.051733 347.000000 36.995892
-11.087595 346.000000 34.036220
-11.087595 345.000000 34.036220
-12.051733 344.000000 36.995892
-12.051733 343.000000 36.995892
-12.051733 342.000000 36.995892
-11.569664 341.000000 35.516056
-11.569664 340.000000 35.516056
-10.605525 336.000000 32.556385
-11.569664 335.000000 35.516056
-11.087595 334.000000 34.036220
-11.087595 333.000000 34.036220
-11.087595 332.000000 34.036220
-11.087595 331.000000 34.036220
-11.087595 330.000000 34.036220
-11.087595 329.000000 34.036220
-11.569664 328.000000 35.516056
-12.051733 327.000000 36.995892
-11.569664 326.000000 35.516056
-11.569664 325.000000 35.516056
-12.051733 324.000000 36.995892
-12.051733 323.000000 36.995892
-11.087595 322.000000 34.036220
-11.087595 321.000000 34.036220
-11.569664 320.000000 35.516056
-12.051733 319.000000 36.995892
-12.051733 318.000000 36.995892
-11.569664 317.000000 35.516056
-11.087595 316.000000 34.036220
-11.087595 315.000000 34.036220
-11.087595 314.000000 34.036220
-11.087595 313.000000 34.036220
-11.087595 312.000000 34.036220
-11.569664 311.000000 35.516056
-11.569664 310.000000 35.516056
-11.087595 309.000000 34.036220
-11.087595 308.000000 34.036220
-11.087595 307.000000 34.036220
